# .PCD v0.7 - Point Cloud Data file format
VERSION 0.7
FIELDS x y z
SIZE 4 4 4
TYPE F F F
COUNT 1 1 1
WIDTH 1005
HEIGHT 1
VIEWPOINT 0 0 0 1 0 0 0
POINTS 1005
DATA ascii
7.6176434 -9.9124527 2.6599147
7.5613165 -9.8398685 2.4060094
7.5270343 -9.7072916 2.4390008
5.354311 -4.7837763 -0.32709599
4.9130535 -3.5657444 0.30161676
4.9140553 -3.5666022 0.27388391
4.9118443 -3.5649974 0.24640095
4.9000664 -3.5564494 0.21811266
4.9134789 -3.5334241 0.35573244
4.9147286 -3.534323 0.32849663
4.9095607 -3.5306065 0.30045369
4.9042258 -3.5269001 0.27247578
4.8988342 -3.5230224 0.24497484
4.8901834 -3.5168014 0.21698765
4.8813667 -3.5105901 0.18910292
4.875668 -3.5064914 0.16183566
4.900672 -3.4917455 0.40878302
4.9116664 -3.499579 0.38203317
4.9034481 -3.4938524 0.35379368
4.8983417 -3.4902139 0.32627505
4.8931499 -3.4865143 0.29841042
4.8814359 -3.4782963 0.27025893
4.8760195 -3.4744368 0.24296886
4.8705139 -3.4705141 0.21533637
4.8680239 -3.4688678 0.18789345
4.8686633 -3.4693234 0.16099474
4.8564296 -3.4607334 0.13333587
4.853694 -3.4587843 0.10602538
4.8840551 -3.4477482 0.4606275
4.8920288 -3.4535046 0.43387902
4.8935742 -3.4545956 0.40692973
4.8950415 -3.4556315 0.37956366
4.8816595 -3.4463122 0.32415915
4.879631 -3.44488 0.29666647
4.8710632 -3.4389589 0.26885134
4.8624368 -3.4328687 0.24154335
4.8569093 -3.4289663 0.21407133
4.8512187 -3.4250755 0.18666619
4.8486657 -3.4232731 0.15983802
4.8491516 -3.4237432 0.13272464
4.8495965 -3.4240572 0.10560849
4.8499355 -3.4242966 0.078894913
4.8437381 -3.4200473 0.051706821
4.8374982 -3.4156418 0.024589019
4.887713 -3.4184737 0.48687324
4.883101 -3.4152484 0.45902309
4.8678885 -3.4048617 0.32215112
4.8626494 -3.4011972 0.29462516
4.8572469 -3.3975446 0.26716435
4.848588 -3.3914878 0.24001458
4.8366404 -3.3831308 0.21242218
4.8309274 -3.3792603 0.1852133
4.8315616 -3.3797038 0.15868354
4.832046 -3.3801684 0.13174853
4.832489 -3.3804781 0.10481077
4.8296256 -3.3784752 0.07822109
4.8234076 -3.3742511 0.051229395
4.8235493 -3.3743498 0.0243403
4.8238425 -3.3808286 -0.0021493882
4.8867736 -3.3859079 0.64890569
4.8615699 -3.3685706 0.56407475
4.8796253 -3.3810811 0.53881752
4.8538451 -3.3635943 0.32024741
4.8485832 -3.3599479 0.29288182
4.8431587 -3.3563142 0.2655814
4.8344679 -3.3502915 0.23858969
4.8192706 -3.3397596 0.21101727
4.8135362 -3.3359098 0.18398672
4.8077488 -3.3318992 0.15742248
4.8114414 -3.3345826 0.13078877
4.808672 -3.3326633 0.10397784
4.8090081 -3.332896 0.07765089
4.8027701 -3.3286972 0.050855458
4.8029113 -3.3287947 0.024162633
4.7968364 -3.330785 -0.0021308591
4.7903032 -3.3263726 -0.028767759
4.8767128 -3.3474126 0.67245793
4.8662934 -3.3403857 0.64414042
4.8558564 -3.3332212 0.61554807
4.8581238 -3.3347778 0.58863801
4.8569942 -3.3341272 0.56174678
4.8590589 -3.3355446 0.53483069
4.8578138 -3.3346899 0.50756812
4.8485065 -3.3284252 0.45292014
4.8468914 -3.327441 0.42576969
4.8452086 -3.3262858 0.39904666
4.8383093 -3.3216736 0.34465232
4.8331075 -3.3181024 0.31781834
4.824605 -3.3122649 0.29045522
4.8191562 -3.3086481 0.26336879
4.8136492 -3.304867 0.23674625
4.7983994 -3.2943971 0.20937029
4.7926426 -3.2905679 0.18253602
4.7905335 -3.2892427 0.1297276
4.7877522 -3.287333 0.10311295
4.7848663 -3.2853515 0.07692755
4.7786083 -3.2811775 0.050346356
4.778748 -3.2812736 0.023867643
4.7759233 -3.28547 -0.0022163549
4.7725892 -3.2832994 -0.02867618
4.8559675 -3.3020949 0.66760421
4.8487115 -3.2972846 0.63990265
4.8414402 -3.2923398 0.61189377
4.8469152 -3.2960627 0.58553177
4.8457718 -3.295409 0.55878049
4.8413978 -3.2924345 0.53130043
4.8336997 -3.2871993 0.50354517
4.8322477 -3.286335 0.47691935
4.8275576 -3.2831454 0.44962072
4.8259263 -3.2821593 0.42266601
4.8242278 -3.281004 0.39613584
4.8192263 -3.2776027 0.36898828
4.814064 -3.2742143 0.34190425
4.8088365 -3.2706592 0.31528085
4.8067513 -3.2692409 0.28851885
4.8012805 -3.2656426 0.26161066
4.7957506 -3.2618814 0.23516372
4.7869053 -3.2558651 0.2082469
4.7779002 -3.2498622 0.18143272
4.7720695 -3.2458961 0.15521999
4.76932 -3.2441478 0.12876859
4.7665272 -3.2422483 0.10235018
4.7636304 -3.2402775 0.076358102
4.7639518 -3.2406178 0.023722893
4.7611618 -3.2448013 -0.0022029136
4.7610474 -3.2448449 -0.028521487
4.7512069 -3.2381382 -0.054727927
4.7477279 -3.2357669 -0.080544502
4.7473178 -3.2356088 -0.10678831
4.7533188 -3.2396991 -0.13321075
4.8349299 -3.2570288 0.66264874
4.8211942 -3.2478981 0.63429207
4.8106585 -3.2408004 0.60610807
4.8225756 -3.2488284 0.58077085
4.8214121 -3.248167 0.55422956
4.8202353 -3.2473741 0.52731574
4.8157272 -3.2443371 0.50009131
4.8142591 -3.2434702 0.47364071
4.8095431 -3.240293 0.44652003
4.8078966 -3.2393057 0.4197433
4.8061824 -3.2381506 0.39338848
4.801156 -3.2347643 0.36641911
4.7959695 -3.2313917 0.33951327
4.7939534 -3.2300332 0.31327686
4.788619 -3.226439 0.28648171
4.7863617 -3.2250395 0.2599276
4.7775726 -3.2191176 0.23348065
4.7719326 -3.2153172 0.20688267
4.7596588 -3.2071681 0.18010665
4.7570443 -3.2054064 0.15417469
4.7424135 -3.1957886 0.023446165
4.7428999 -3.2021382 -0.0022878577
4.7427859 -3.2021818 -0.028427998
4.732666 -3.1953492 -0.080151372
4.7290206 -3.1930079 -0.10616194
4.7253327 -3.1905181 -0.13213462
4.9019337 -3.2701721 1.3038912
4.8843899 -3.2585919 1.2155057
4.8315163 -3.2240486 0.740592
4.8116083 -3.2108855 0.71111214
4.8110332 -3.2105017 0.68422282
4.8103542 -3.2100487 0.65735465
4.80302 -3.2052755 0.63005501
4.7956691 -3.2003698 0.60245436
4.8043742 -3.2061791 0.57688868
4.8064289 -3.2076716 0.55089301
4.802 -3.204716 0.52378619
4.7974658 -3.20169 0.49673948
4.7992206 -3.2029819 0.47078171
4.7944798 -3.1998181 0.44382113
4.7928195 -3.1988311 0.41720453
4.791091 -3.1976774 0.39100751
4.7827988 -3.192143 0.36395162
4.7808328 -3.1909513 0.33745286
4.7788029 -3.1895964 0.31137437
4.7734461 -3.1860211 0.28473958
4.767931 -3.1824603 0.25817016
4.7558637 -3.1744058 0.23174062
4.7502007 -3.1706259 0.20533876
4.7270732 -3.1555467 0.02330203
4.7243567 -3.1596971 -0.0022722411
4.7274909 -3.1619122 -0.028253356
4.7173433 -3.1551256 -0.079657964
4.8843546 -3.2277374 1.2953496
4.8205976 -3.1863301 0.81688601
4.8203869 -3.1861906 0.79034716
4.7974477 -3.1711485 0.7598514
4.8035259 -3.1751661 0.73406875
4.7932401 -3.1684875 0.70624572
4.7894092 -3.1659551 0.6790747
4.785471 -3.163352 0.65196037
4.7878146 -3.1650212 0.62614143
4.7901506 -3.1665654 0.59991831
4.789144 -3.1659 0.57329458
4.7847047 -3.1630852 0.54671496
4.7834926 -3.1622841 0.52015656
4.7821784 -3.1614151 0.49362278
4.7839274 -3.1626916 0.46782261
4.7791624 -3.1595411 0.44102222
4.7742376 -3.1564054 0.41428378
4.7692423 -3.1531026 0.38799766
4.7641668 -3.1497474 0.36138448
4.7621865 -3.1485574 0.33506384
4.7568884 -3.1450546 0.30894959
4.7515073 -3.1414967 0.28251091
4.7459688 -3.137954 0.25613764
4.7371154 -3.1321001 0.23005965
4.7346859 -3.1304939 0.20397651
4.7262077 -3.1250069 0.15218666
4.7234263 -3.1232862 0.12621699
4.7238579 -3.1235716 0.10034958
4.7209287 -3.1216347 0.074814573
4.7145939 -3.117564 0.048893791
4.7147307 -3.1176546 0.023075256
4.7120471 -3.1217935 -0.0023583996
4.7086782 -3.1196799 -0.02815789
4.7017598 -3.1150961 -0.079262994
4.6980987 -3.1127884 -0.10495235
4.6798153 -3.1009097 -0.28351501
4.8118801 -3.1504855 0.83988601
4.7988601 -3.1419609 0.81087148
4.7953882 -3.1396878 0.78399473
4.7853198 -3.133215 0.75575793
4.7816744 -3.1308281 0.72863489
4.7810707 -3.1305521 0.70243329
4.7772141 -3.128027 0.67540401
4.7732511 -3.1254323 0.64843148
4.7820868 -3.1313367 0.62359959
4.7801495 -3.1300683 0.5705775
4.7691817 -3.1230054 0.54337907
4.7679539 -3.1222014 0.51698053
4.7633681 -3.1191983 0.49027166
4.765111 -3.1204584 0.46464664
4.7603202 -3.1173213 0.4380241
4.7553711 -3.1141992 0.41146359
4.7503514 -3.1109116 0.38535282
4.7485127 -3.1097076 0.35916436
4.7465196 -3.1085205 0.33300403
4.741199 -3.105036 0.30704769
4.739059 -3.1036346 0.28096291
4.7335 -3.100112 0.25473222
4.7278805 -3.0964317 0.22895284
4.7254405 -3.0948336 0.20299451
4.7195807 -3.0911136 0.17694515
4.7169323 -3.0893791 0.15145247
4.7141409 -3.0876684 0.12560767
4.714572 -3.0879505 0.099865139
4.708365 -3.0838852 0.074401513
4.7020111 -3.0798409 0.048623472
4.7054157 -3.0820708 0.022963628
4.6994972 -3.0840583 -0.0023453606
4.6993856 -3.0841022 -0.02802158
4.6894326 -3.0775702 -0.053585269
4.6891837 -3.0774069 -0.078823864
4.7864652 -3.1039741 0.91257608
4.8028674 -3.1146107 0.88890547
4.7867293 -3.1041455 0.85964662
4.7834339 -3.1021271 0.83244884
4.7768388 -3.0978501 0.80475754
4.7733345 -3.0955772 0.77807242
4.7729635 -3.0954552 0.75156516
4.772543 -3.0951824 0.72507769
4.768672 -3.0927904 0.69852173
4.7615356 -3.0881617 0.67117548
4.7575455 -3.0855737 0.64436257
4.763134 -3.0893164 0.61926407
4.7687168 -3.0929375 0.59373063
4.7644205 -3.0901508 0.56698507
4.7566714 -3.0852427 0.54031491
4.7554283 -3.0844367 0.51405853
4.7508187 -3.0814466 0.48749191
4.7525568 -3.0826921 0.46200696
4.7477427 -3.0795693 0.43552685
4.7460399 -3.0785825 0.40939075
4.7409978 -3.0753121 0.38340282
4.7391472 -3.0741115 0.35733902
4.7338705 -3.070806 0.3310746
4.7285275 -3.0673401 0.30525878
4.7263751 -3.065944 0.27931657
4.7207952 -3.0624411 0.2532286
4.7151542 -3.0587821 0.22758982
4.7127023 -3.0571914 0.20177417
4.7068219 -3.0534935 0.1758676
4.7041626 -3.0517681 0.15051553
4.7013607 -3.0500672 0.12481349
4.6985135 -3.0482199 0.099144526
4.6955633 -3.0463059 0.073890768
4.6891909 -3.0422878 0.0482556
4.6893268 -3.042376 0.022722546
4.6834331 -3.0443633 -0.002428185
4.683322 -3.0444071 -0.027943814
4.6733408 -3.037919 -0.053346712
4.6698179 -3.0356288 -0.078372158
4.7831359 -3.0721333 0.96231049
4.7899737 -3.0765252 0.93735594
4.767509 -3.0622144 0.90640587
4.7612 -3.0581617 0.87871569
4.7579784 -3.0560925 0.85208035
4.7577677 -3.0560744 0.79929042
4.7542329 -3.0538039 0.77277941
4.7505832 -3.0515769 0.74593741
4.7468801 -3.0491982 0.7191506
4.7429771 -3.046808 0.69280392
4.7423267 -3.0463901 0.66658777
4.7448387 -3.0480039 0.64083421
4.7471638 -3.0496144 0.61545193
4.7527485 -3.0532019 0.59007818
4.748426 -3.0504253 0.56349236
4.7471862 -3.0497458 0.5377208
4.7459302 -3.048939 0.51158881
4.7412977 -3.045963 0.48514658
4.739758 -3.0450904 0.45946673
4.7349205 -3.0419829 0.43312889
4.7299271 -3.0388913 0.4068532
4.7281404 -3.0377433 0.38128749
4.7262764 -3.0365458 0.35536614
4.7242594 -3.0353663 0.32947299
4.7156138 -3.0298116 0.30356875
4.7101665 -3.0263116 0.2775757
4.7012825 -3.0207193 0.2514725
4.6989031 -3.0191905 0.22616738
4.6931548 -3.0154972 0.20037198
4.6905384 -3.0139318 0.17476612
4.6845822 -3.0101047 0.14946738
4.6784844 -3.0063016 0.12385674
4.6756258 -3.0044649 0.098384008
4.6726646 -3.0025623 0.07332357
4.6662731 -2.9985702 0.047884662
4.6696949 -3.0007689 0.022563757
4.6638279 -3.0027528 -0.0024112046
4.6637177 -3.0027969 -0.027748404
4.7694778 -3.0339303 1.0099825
4.7863092 -3.0446372 0.98682934
4.7640123 -3.0305705 0.95569223
4.7610884 -3.0287104 0.92900717
4.7482939 -3.0206876 0.90013742
4.7384348 -3.0145319 0.79372531
4.7348695 -3.0122635 0.7673884
4.7344575 -3.0121176 0.7412349
4.7339954 -3.0118237 0.7151013
4.7333384 -3.0115218 0.68937063
4.7294002 -3.009016 0.6628198
4.731905 -3.0106099 0.63720798
4.7342238 -3.0122013 0.61196542
4.7365327 -3.0136704 0.58632773
4.7321844 -3.0109036 0.55990171
4.7342095 -3.0123081 0.53465819
4.7296562 -3.0094109 0.50831556
4.728282 -3.0085368 0.48236841
4.7201591 -3.0034838 0.45619377
4.7152958 -3.0003893 0.43003392
4.7135644 -2.9994032 0.40421814
4.7117634 -2.9982572 0.37881029
4.7033067 -2.9928761 0.35255611
4.6979842 -2.9896042 0.3266302
4.6893044 -2.9840808 0.30093673
4.6838322 -2.9805984 0.2751576
4.6782074 -2.9771338 0.24944402
4.6725211 -2.9735153 0.22417413
4.670043 -2.9719381 0.19873297
4.6557426 -2.9630659 0.097596303
4.6530857 -2.961489 0.022324584
4.6472435 -2.9634721 -0.00249212
4.6471334 -2.9635162 -0.027668729
4.7552891 -2.9957244 1.0568645
4.7625227 -3.0003977 1.0318855
4.7501354 -2.9925935 1.0031117
4.7507062 -2.9929533 0.97678703
4.7446036 -2.9892244 0.94917321
4.7383862 -2.985307 0.92202693
4.7289214 -2.9794595 0.8420884
4.725534 -2.9774404 0.81542015
4.7253637 -2.9773331 0.78935218
4.7217717 -2.97507 0.76315457
4.7213435 -2.9749153 0.7371425
4.7208648 -2.9746134 0.71115047
4.720192 -2.9743049 0.68555933
4.7195106 -2.9738753 0.65960896
4.7154427 -2.971312 0.63323921
4.7144685 -2.970813 0.60773033
4.7167678 -2.9722621 0.58227009
4.7091036 -2.9674325 0.5556336
4.7111192 -2.9688175 0.53058249
4.7065377 -2.9659305 0.5044353
4.7051454 -2.9650531 0.47868365
4.6969872 -2.9600263 0.45270169
4.6920977 -2.9569449 0.42673749
4.6903501 -2.9559579 0.40111744
4.6885324 -2.9548125 0.37590244
4.6833396 -2.95154 0.35009068
4.681293 -2.9503644 0.32457161
4.6725817 -2.944874 0.29903609
4.6670876 -2.9414113 0.27341732
4.6614413 -2.9379666 0.24786416
4.6590357 -2.9364502 0.22291028
4.6565461 -2.9348812 0.19761176
4.6539068 -2.9333313 0.17234479
4.6512122 -2.931633 0.14748473
4.6450753 -2.9278779 0.1221953
4.6362224 -2.922411 0.022182288
4.6335988 -2.9265237 -0.027511856
4.6088238 -2.9112139 -0.25053239
4.7665076 -2.9738197 1.1091974
4.7305379 -2.951493 0.99614382
4.7310843 -2.9518337 0.96999478
4.7347422 -2.9542308 0.94451249
4.7284899 -2.9503298 0.91748768
4.7254 -2.9485161 0.89078587
4.7222528 -2.9465528 0.86413592
4.7222271 -2.9465363 0.83849955
4.7188172 -2.9445233 0.81193727
4.7153516 -2.9423609 0.78542864
4.7084517 -2.9380553 0.75882381
4.7145777 -2.941992 0.73397624
4.7107978 -2.9396336 0.7075966
4.7133999 -2.9413717 0.6826039
4.709414 -2.9388843 0.65630114
4.6954446 -2.9301665 0.62873286
4.6944518 -2.9296608 0.60339874
4.6967411 -2.9310894 0.57811582
4.692337 -2.9283412 0.55204493
4.6910472 -2.9276497 0.52678078
4.6864386 -2.9247739 0.50081134
4.6883307 -2.9259546 0.47557238
4.6834416 -2.923017 0.45006564
4.6785288 -2.9199507 0.42424384
4.6767678 -2.9189651 0.39876616
4.6716304 -2.9157586 0.37342721
4.6697216 -2.9145672 0.34802228
4.6676621 -2.9133952 0.32264569
4.6622291 -2.9100039 0.29746187
4.6567135 -2.9065614 0.27196798
4.6543579 -2.9052038 0.24671514
4.6486306 -2.9016287 0.22170877
4.6461296 -2.9000678 0.19653513
4.6401677 -2.8964591 0.17127079
4.6374621 -2.8947701 0.14655134
4.6346183 -2.8931074 0.12149157
4.6284146 -2.8892348 0.096395947
4.6224217 -2.8856058 0.021960696
4.6199389 -2.8896618 -0.0025589676
4.6198301 -2.8897061 -0.027450087
4.7204723 -2.9166753 0.99133486
4.7242751 -2.9190249 0.96597821
4.7279286 -2.9213965 0.94060141
4.7216444 -2.9175134 0.91368073
4.715251 -2.9136765 0.88646764
4.7087955 -2.9096873 0.8593418
4.7087512 -2.9096601 0.83384442
4.7020268 -2.9056184 0.80685914
4.7018228 -2.9054923 0.78105605
4.6981802 -2.9032414 0.75511968
4.6977205 -2.9030704 0.72937292
4.6906166 -2.8986807 0.70265871
4.6932082 -2.9003954 0.67784041
4.6891932 -2.8979142 0.65171486
4.6817718 -2.8933275 0.62520564
4.6807637 -2.8928175 0.60001123
4.6797414 -2.8921857 0.57446456
4.675312 -2.8894482 0.54855347
4.674006 -2.8887537 0.52344674
4.6726818 -2.8879354 0.49798989
4.6712575 -2.8870552 0.4725582
4.6696568 -2.8861783 0.44752648
4.664721 -2.8831277 0.42184699
4.6629467 -2.8821437 0.39651167
4.6611023 -2.8810034 0.37157726
4.6591811 -2.8798161 0.34629697
4.6571107 -2.8786488 0.32104504
4.6516566 -2.8752775 0.29598406
4.6494393 -2.8739071 0.27080819
4.6437545 -2.8705049 0.24548683
4.6380072 -2.8669522 0.22060339
4.6321745 -2.8633471 0.19541447
4.6261935 -2.8597615 0.17029279
4.623477 -2.8580823 0.1457139
4.6206231 -2.8564296 0.12079684
4.6144004 -2.8525825 0.095843934
4.6083879 -2.8489769 0.021834757
4.6025085 -2.8510077 -0.02727299
4.5867896 -2.8414924 -0.1743836
4.5860648 -2.8410432 -0.1990281
4.7036476 -2.8779969 0.98505569
4.7074366 -2.8803153 0.95985711
4.7110772 -2.8826559 0.9346385
4.7047539 -2.8787863 0.90787393
4.7016115 -2.8769765 0.88143635
4.6951189 -2.8730037 0.85445166
4.6950564 -2.8729653 0.82909328
4.6882963 -2.8689413 0.80224931
4.6880741 -2.8688054 0.77658755
4.6811037 -2.8645399 0.75026137
4.680625 -2.8643591 0.72467381
4.6767893 -2.8620119 0.69861269
4.6760664 -2.8616817 0.67345762
4.6753325 -2.8612325 0.64795011
4.6711869 -2.8586957 0.6220237
4.6701651 -2.8581822 0.5969516
4.6691284 -2.8575478 0.57152915
4.6646757 -2.8548226 0.54574239
4.6633563 -2.8541272 0.52075815
4.6620183 -2.8533082 0.4954257
4.6605806 -2.8524282 0.47011846
4.6556463 -2.84952 0.44489205
4.6506872 -2.8464849 0.41935495
4.6489 -2.8455024 0.39416203
4.6470413 -2.8443649 0.36936793
4.6451068 -2.8431807 0.34423012
4.643024 -2.8420172 0.31912073
4.637548 -2.8386655 0.29420024
4.6319909 -2.8352637 0.26897374
4.6296124 -2.833919 0.24398831
4.6238441 -2.8303881 0.21924548
4.6146617 -2.8247674 0.1940593
4.6086602 -2.8212042 0.16909824
4.6059322 -2.8195343 0.14467753
4.6030679 -2.8178914 0.11992107
4.6001563 -2.8161087 0.095197774
4.5941234 -2.8125257 0.021614803
4.5917039 -2.8165562 -0.0026236332
4.5915966 -2.8166008 -0.027229263
4.589788 -2.815712 -0.14950439
4.7198539 -2.8593457 1.1678072
4.6865611 -2.8395123 0.97887331
4.6870451 -2.8398054 0.9531635
4.69067 -2.8421137 0.92812079
4.6843052 -2.8382571 0.90152961
4.6811309 -2.8364453 0.87526816
4.6712961 -2.8304863 0.84786052
4.6745119 -2.8324349 0.82327509
4.6677127 -2.8284264 0.79660761
4.6707759 -2.8302824 0.77166897
4.667078 -2.8280418 0.7460286
4.6665826 -2.827853 0.72058249
4.6660347 -2.8275211 0.69515669
4.6619821 -2.8251762 0.6696474
4.6612315 -2.8247216 0.64428163
4.6603804 -2.8242059 0.61893779
4.6593447 -2.8236895 0.593988
4.6616168 -2.8250661 0.56909537
4.6538186 -2.8203404 0.54302728
4.6491609 -2.8176286 0.51779509
4.6478081 -2.8168087 0.49260476
4.6430273 -2.8139112 0.46710488
4.6380696 -2.8110173 0.44203609
4.6330862 -2.8079972 0.41665912
4.6279531 -2.8049963 0.39134458
4.6260791 -2.8038607 0.3667258
4.6241293 -2.8026788 0.34176603
4.6220326 -2.8015182 0.31683475
4.6165338 -2.7981853 0.29208976
4.6142898 -2.7968254 0.26723468
4.6085625 -2.7934639 0.24223426
4.6027727 -2.7899542 0.21766704
4.6002364 -2.7884171 0.19293919
4.5942159 -2.7848773 0.1681208
4.5948162 -2.7852411 0.14394525
4.5919423 -2.7836087 0.11931365
4.5856805 -2.7798131 0.094646305
4.5829692 -2.7782786 0.021505084
4.5805793 -2.782299 -0.0026103153
4.5804725 -2.7823439 -0.027091041
4.5703039 -2.7761669 -0.051458437
4.5700598 -2.7760186 -0.07551945
4.5663309 -2.7738626 -0.099870451
4.5725684 -2.7776518 -0.12445621
4.7071881 -2.8237815 1.1357448
4.6725411 -2.8032188 0.97328275
4.6697044 -2.801517 0.94704425
4.6700134 -2.8018134 0.92150807
4.6636062 -2.7979693 0.89509034
4.6637073 -2.7981405 0.86962181
4.6637549 -2.7981691 0.84417039
4.666965 -2.8000951 0.81968915
4.6634488 -2.7980964 0.79369181
4.6631923 -2.7979424 0.76829499
4.6561537 -2.7937191 0.74223018
4.6523218 -2.7915306 0.71639645
4.6517568 -2.7911913 0.69111222
4.6510029 -2.7908494 0.66621882
4.6502376 -2.7903903 0.64097703
4.6493716 -2.7898705 0.61575729
4.6483216 -2.789351 0.59092981
4.6472564 -2.7887118 0.56575578
4.6360922 -2.7820122 0.539442
4.6314092 -2.7793121 0.51436734
4.6267042 -2.7764885 0.48898444
4.6252341 -2.7756062 0.46399716
4.6202521 -2.7727263 0.43908611
4.6119051 -2.7677171 0.41356984
4.6100879 -2.766736 0.38871503
4.6081991 -2.7656026 0.36425409
4.606235 -2.7644238 0.33945462
4.6041245 -2.7632666 0.31468368
4.6019478 -2.76196 0.2903077
4.5996914 -2.7606058 0.26559523
4.5972896 -2.7592735 0.24091284
4.5948262 -2.7577949 0.21662644
4.5889325 -2.7542574 0.19186568
4.5862403 -2.7527504 0.16729435
4.5868392 -2.7531099 0.14322421
4.5839558 -2.7514882 0.1186997
4.5810242 -2.7497284 0.094208382
4.5779924 -2.7479086 0.070114806
4.5781713 -2.7481246 0.045724638
4.5783024 -2.7482035 0.021333516
4.5725908 -2.750206 -0.0026920296
4.5691376 -2.7482374 -0.027045883
4.5589423 -2.7421052 -0.051288173
4.5586982 -2.7419586 -0.07522615
4.671205 -2.7745512 1.0982755
4.6604929 -2.7682986 1.0190418
4.6577911 -2.7668037 0.99286211
4.6615853 -2.7690573 0.96847475
4.6587224 -2.7673569 0.94235927
4.6590152 -2.7676406 0.91694611
4.6525736 -2.7638142 0.8906498
4.6526585 -2.7639744 0.86530453
4.6526895 -2.7639928 0.83997649
4.6558919 -2.7658954 0.81561691
4.6523519 -2.7639022 0.78974313
4.6487541 -2.7617648 0.76392347
4.6416802 -2.7575622 0.73799789
4.6411524 -2.7573583 0.71281701
4.6372404 -2.7550342 0.68716305
4.6364703 -2.7546864 0.66240913
4.6323533 -2.7522402 0.63685054
4.6314692 -2.7517147 0.61179036
4.6304026 -2.7511904 0.58712006
4.6293197 -2.7505469 0.56210572
4.6181126 -2.7438881 0.53595173
4.6167479 -2.7431865 0.51140487
4.6153636 -2.7423637 0.48651659
4.6138802 -2.7414823 0.46165374
4.6088772 -2.7386186 0.4368653
4.603848 -2.7356303 0.411773
4.6020198 -2.7346528 0.38702494
4.6001201 -2.7335238 0.36266923
4.598145 -2.7323499 0.33797657
4.596024 -2.7311983 0.3133125
4.5938363 -2.7298982 0.28904182
4.5915694 -2.7285511 0.26443627
4.5891576 -2.7272263 0.23986082
4.5866838 -2.7257562 0.21567978
4.580771 -2.7222424 0.191026
4.5780697 -2.7207451 0.16656168
4.5786672 -2.7211003 0.14259695
4.5724177 -2.7174942 0.11809276
4.5694766 -2.7157459 0.093726322
4.5697927 -2.715934 0.06980706
4.5666137 -2.7141526 0.045490496
4.5633869 -2.7122347 0.021208666
4.5576978 -2.7142386 -0.0026762637
4.5542364 -2.7122848 -0.026887372
4.5507274 -2.7101951 -0.051062234
4.6486444 -2.7338912 1.0392624
4.6559973 -2.7382154 1.015339
4.6499629 -2.7347758 0.98854297
4.650435 -2.7350535 0.96357256
4.6475458 -2.7333543 0.93758011
4.6511412 -2.7355781 0.91294175
4.6413455 -2.7298169 0.88611525
4.6414137 -2.7299659 0.86089331
4.6414275 -2.729974 0.83568865
4.6446218 -2.7318528 0.8114506
4.6377254 -2.7279055 0.7851364
4.6341009 -2.7257733 0.75945812
4.6236553 -2.7196295 0.73314303
4.6197701 -2.7174528 0.70761001
4.615828 -2.7151339 0.68213302
4.6183796 -2.7167432 0.65802968
4.6175785 -2.7162721 0.63308907
4.6166778 -2.7157421 0.60817075
4.6155949 -2.7152138 0.58364022
4.6144962 -2.7145672 0.5587678
4.6065969 -2.7099204 0.53314376
4.6085711 -2.7111897 0.50908965
4.6071739 -2.7103682 0.484308
4.6056781 -2.7094882 0.45955184
4.6006551 -2.7066412 0.4348686
4.5989623 -2.7056453 0.41018254
4.600482 -2.7066474 0.38580507
4.5985727 -2.705524 0.36151955
4.5932279 -2.7023795 0.33665189
4.5910974 -2.7012339 0.3120769
4.5855374 -2.6979625 0.2876831
4.5798969 -2.694644 0.2629914
4.5774741 -2.693326 0.23854077
4.5716248 -2.6898844 0.214325
4.5690565 -2.6883731 0.18995386
4.5663447 -2.6868849 0.16561443
4.5635753 -2.6852553 0.14166819
4.5573068 -2.681674 0.11730683
4.5543551 -2.6799371 0.093083166
4.5546699 -2.6801224 0.069304496
4.5514817 -2.6783533 0.045130733
4.544879 -2.6744678 0.020976173
4.5358491 -2.6744857 -0.0027484589
4.5458384 -2.6804829 -0.026860595
4.5456853 -2.6803925 -0.050966054
4.6439552 -2.7039318 1.0355666
4.6413593 -2.7024202 1.0095659
4.6352878 -2.6989934 0.98291028
4.6324167 -2.6973217 0.95739138
4.6294961 -2.695621 0.93155712
4.6330781 -2.6978149 0.90707701
4.6232347 -2.6920834 0.88040656
4.6199484 -2.6902776 0.85472643
4.6199384 -2.6902719 0.82969803
4.6164417 -2.6882358 0.80447036
4.6095014 -2.6843021 0.778368
4.6058412 -2.6821704 0.75290167
4.6053777 -2.6819005 0.72838235
4.6048112 -2.6816783 0.70351982
4.6041918 -2.6813176 0.67867798
4.6033869 -2.6809564 0.65422058
4.6025691 -2.68048 0.62942165
4.5949435 -2.676039 0.6037637
4.6005535 -2.6794138 0.58025432
4.606153 -2.6826751 0.55633485
4.5982246 -2.6780574 0.53081733
4.5968351 -2.6773555 0.50649792
4.5954247 -2.6765339 0.48184064
4.5939155 -2.6756551 0.45720887
4.5922356 -2.6747839 0.43296546
4.5905313 -2.6737914 0.40838611
4.5792527 -2.6674361 0.31047767
4.5703025 -2.6622224 0.28599581
4.564641 -2.6589248 0.26144665
4.558835 -2.6556492 0.23696335
4.5563378 -2.6541946 0.21306334
4.5503845 -2.6507268 0.18869497
4.5442886 -2.6472816 0.16439398
4.5415077 -2.6456618 0.14062344
4.5385947 -2.6440709 0.1165271
4.5356326 -2.6423452 0.092463993
4.5291963 -2.6385956 0.068741046
4.5259991 -2.6368389 0.044763546
4.6112061 -2.6580977 0.92553413
4.6181111 -2.6621854 0.90186393
4.608223 -2.6564853 0.87533218
4.6015673 -2.6527555 0.84917629
4.6015353 -2.6527371 0.82430649
4.5980096 -2.6507044 0.79923522
4.5943809 -2.6487193 0.77385569
4.5906935 -2.6465936 0.74853069
4.593565 -2.6482489 0.72467959
4.5929832 -2.6480205 0.69994086
4.5923486 -2.6476545 0.67522287
4.5948877 -2.6492255 0.65136367
4.5940566 -2.6487463 0.62667108
4.5864015 -2.6443324 0.60111946
4.5920162 -2.6476765 0.57771492
4.5819454 -2.6419766 0.45486593
4.5751619 -2.6381714 0.40599087
4.5713644 -2.6360881 0.3575584
4.5638232 -2.6318455 0.30864999
4.5548429 -2.626667 0.28430852
4.5457811 -2.6214411 0.25970882
4.5399551 -2.618187 0.23538592
4.5374455 -2.6167395 0.21164396
4.5348539 -2.6152451 0.18757594
4.5287385 -2.6118238 0.16341762
4.5259471 -2.610214 0.13978764
4.5196419 -2.6066825 0.11574735
4.5166693 -2.6049681 0.091844812
4.513598 -2.6031969 0.068331264
4.5962315 -2.62292 0.89534754
4.5996842 -2.6248903 0.87152636
4.5929976 -2.6211808 0.84547615
4.5963039 -2.6230679 0.82131118
4.5927572 -2.6210439 0.79632676
4.5857515 -2.617152 0.77047151
4.5854011 -2.6169519 0.74579883
4.584908 -2.6166704 0.72150582
4.5843134 -2.6164372 0.69687319
4.5836649 -2.6160669 0.67226136
4.5828328 -2.6156981 0.6480307
4.5786176 -2.6132922 0.62300366
4.5709286 -2.6089036 0.59759384
4.5731721 -2.6102901 0.57390583
4.5787754 -2.6134882 0.5502525
4.5741591 -2.6108532 0.52538896
4.569366 -2.6082232 0.5009442
4.564548 -2.605473 0.47620097
4.5630097 -2.6045949 0.45185357
4.5613027 -2.6037261 0.42789039
4.5561872 -2.6008062 0.40329626
4.5543108 -2.5998404 0.37904647
4.5489764 -2.5967953 0.35491765
4.5469513 -2.5956392 0.33074138
4.5447841 -2.5945072 0.30659384
4.5357738 -2.5893636 0.28241032
4.5334587 -2.5880418 0.2583572
4.531002 -2.5867443 0.23433432
4.5284824 -2.5853057 0.21069773
4.5258808 -2.5838206 0.18673667
4.5197477 -2.5804238 0.16268535
4.5169468 -2.5788245 0.1391608
4.5140152 -2.5772555 0.11531417
4.5076418 -2.5736167 0.091432028
4.5774651 -2.585799 0.88939106
4.5809031 -2.5877411 0.86572587
4.5876117 -2.5916362 0.84230077
4.5875525 -2.591603 0.81762487
4.5873466 -2.5914865 0.79332638
4.5769467 -2.585717 0.76699555
4.576582 -2.5855107 0.74242884
4.5727048 -2.5833204 0.71771139
4.5720944 -2.583081 0.69320256
4.5714297 -2.5827055 0.66871464
4.5705829 -2.5823321 0.64460605
4.5697212 -2.5818453 0.62016147
4.5620022 -2.5774841 0.59485817
4.5642414 -2.5788543 0.57127494
4.5584421 -2.5755777 0.52219564
4.55024 -2.5710483 0.49752077
4.5487843 -2.5702255 0.47328994
4.5472307 -2.5693476 0.44908476
4.5455093 -2.5684798 0.42526174
4.5403714 -2.5655766 0.40081
4.541873 -2.5665298 0.37698415
4.5399108 -2.5654209 0.35324219
4.5344801 -2.5623522 0.32892659
4.5323014 -2.5612252 0.30490375
4.5266581 -2.5580363 0.28105408
4.524332 -2.5567217 0.25710794
4.5252624 -2.5573518 0.23336725
4.5227327 -2.5559223 0.20981851
4.5133243 -2.5506053 0.18566705
4.510572 -2.5491536 0.16186266
4.5009618 -2.5437224 0.13823475
4.4946203 -2.5402422 0.11444433
4.5618725 -2.5507984 0.86001778
4.5753093 -2.5584164 0.83798444
4.5752335 -2.5583739 0.81343192
4.5716391 -2.5563641 0.78867346
4.5679436 -2.5544024 0.76361173
4.5641885 -2.5523026 0.73860472
4.560287 -2.5501208 0.71400917
4.5596614 -2.5498755 0.68962407
4.5589814 -2.549495 0.66526002
4.5547357 -2.547225 0.6407975
4.5538568 -2.5467336 0.6164946
4.5461044 -2.5423982 0.59133309
4.5483365 -2.5437505 0.56788957
4.5505528 -2.5449903 0.54407912
4.5391049 -2.5385876 0.51870662
4.5376577 -2.5378823 0.49492952
4.5361881 -2.5370603 0.47082305
4.5346212 -2.5361838 0.4467423
4.5294895 -2.5334175 0.42272475
4.5277281 -2.5324326 0.39871466
4.5292263 -2.5333741 0.37501335
4.5238504 -2.5303671 0.35113013
4.5218005 -2.5292206 0.32720318
4.5196104 -2.5280991 0.303305
4.5173516 -2.5268357 0.27978903
4.5184197 -2.5274332 0.25614282
4.5005617 -2.5175474 0.18468839
4.5594425 -2.5234928 0.83296055
4.5559697 -2.5215704 0.80795014
4.5523448 -2.5195644 0.78334808
4.5486207 -2.5176067 0.75844526
4.5482202 -2.517385 0.7341435
4.5409055 -2.5133367 0.70915848
4.5402603 -2.513083 0.68493259
4.5429502 -2.5145719 0.66122127
4.5420713 -2.514189 0.63737434
4.5411773 -2.513694 0.61319548
4.5401845 -2.5131445 0.58903933
4.5390162 -2.5126014 0.56526005
4.5331426 -2.5093498 0.5166778
4.5282826 -2.506763 0.49261808
4.5268002 -2.5059423 0.46861827
4.5252209 -2.5050681 0.44464421
4.5234756 -2.504205 0.42104891
4.5217037 -2.5032239 0.39712778
4.5197911 -2.5022683 0.37323391
4.5143952 -2.4992812 0.34945601
4.5123339 -2.4981399 0.32563594
4.5067215 -2.4951355 0.30161637
4.5044508 -2.4938784 0.27822328
4.4986892 -2.4906883 0.25431585
4.4996152 -2.4913034 0.23082468
4.4902344 -2.4861097 0.2072067
4.5466161 -2.4905405 0.80435658
4.5395813 -2.4866869 0.77927727
4.5392222 -2.4865932 0.75506186
4.5354152 -2.4845078 0.73031986
4.5280685 -2.4804833 0.70545667
4.5240111 -2.4783633 0.68084347
4.523293 -2.4779699 0.65678024
4.5257959 -2.4794438 0.63356626
4.5248847 -2.4789445 0.60952914
4.5238752 -2.4783916 0.58551478
4.5260968 -2.4797113 0.56229836
4.5187149 -2.4757698 0.49039742
4.5086732 -2.4703701 0.39503291
4.5067487 -2.469418 0.37126362
4.5013323 -2.4664502 0.34760845
4.499259 -2.4653141 0.32391301
4.4970469 -2.4642041 0.30024642
4.4913449 -2.4610794 0.27674785
4.482142 -2.4560368 0.25277221
4.5167303 -2.4486091 0.7970798
4.5266294 -2.4539757 0.7751165
4.5228558 -2.4520319 0.75046092
4.5190215 -2.4499533 0.72586024
4.5116396 -2.4459512 0.70113653
4.5075564 -2.4438393 0.67666483
4.5102267 -2.445287 0.65323657
4.5127225 -2.4467421 0.6301446
4.5152054 -2.4480884 0.60668975
4.5107703 -2.4456837 0.58234125
4.509572 -2.4451358 0.558824
4.5117688 -2.446327 0.53538603
4.5070376 -2.4437616 0.51116186
4.5055528 -2.4430585 0.48771721
4.5006242 -2.4403861 0.46359608
4.4955964 -2.4376597 0.43953639
4.4938245 -2.4368002 0.41620386
4.4920249 -2.4358246 0.39254957
4.490087 -2.434875 0.36892268
4.4880748 -2.433784 0.34567174
4.4825621 -2.4307945 0.32185492
4.4769092 -2.4278302 0.29810262
4.4677563 -2.4228666 0.27455139
4.5202746 -2.4250705 0.77220911
4.5096688 -2.4194822 0.74651408
4.5058103 -2.4174118 0.72203708
4.4949856 -2.4116044 0.69690639
4.4908767 -2.4095008 0.67257619
4.4935369 -2.4109282 0.64928949
4.4994402 -2.4141967 0.62681305
4.498498 -2.413691 0.60302395
4.4940381 -2.411298 0.57881725
4.4928236 -2.4107473 0.55543977
4.4950123 -2.4119217 0.53214377
4.4902573 -2.4093704 0.50806153
4.4853311 -2.4068279 0.4843868
4.4803777 -2.40417 0.46042559
4.478755 -2.4032991 0.43686035
4.4769692 -2.4024415 0.41366798
4.4751554 -2.4014683 0.39015597
4.4732041 -2.4005218 0.36667144
4.4711785 -2.3994348 0.34356079
4.4622097 -2.3946216 0.31964034
4.4889851 -2.3832188 0.7176677
4.4815364 -2.3792644 0.69320512
4.4774041 -2.3771706 0.66899866
4.4800563 -2.3785789 0.64583582
4.4825358 -2.3799958 0.62300551
4.4815764 -2.3794863 0.59935814
4.4702353 -2.3734648 0.57441223
4.4724317 -2.3747308 0.55163246
4.4780416 -2.3777099 0.52890146
4.4698296 -2.3733494 0.5045737
4.4648795 -2.3708208 0.48105642
4.4633374 -2.370002 0.45760739
4.4617 -2.3691325 0.43418434
4.4598999 -2.3682766 0.41113207
4.4580722 -2.367306 0.3877624
4.4561076 -2.3663626 0.36442018
4.4506269 -2.363452 0.34118593
4.4519567 -2.3641582 0.31816393
4.4713173 -2.3488879 0.69003254
4.4637351 -2.3450041 0.66542113
4.4663792 -2.3463933 0.64238214
4.4654198 -2.3459888 0.61919802
4.4644427 -2.3454754 0.5956924
4.4564972 -2.341301 0.57132876
4.4586868 -2.3425508 0.54867125
4.4642982 -2.345499 0.5260644
4.459497 -2.3429763 0.50224847
4.4579692 -2.342273 0.4792062
4.4529724 -2.3396478 0.45549372
4.4547682 -2.340591 0.43251184
4.449512 -2.3379285 0.40923014
4.4476724 -2.336962 0.3859672
4.4533176 -2.3147938 0.66226709
4.4559555 -2.316165 0.6393342
4.4584222 -2.3175461 0.61673063
4.4539914 -2.3152428 0.59285539
4.4460163 -2.3110971 0.56859827
4.4516463 -2.3141227 0.54646856
4.4607091 -2.3188338 0.52435553
4.4558902 -2.3163288 0.50061071
4.4543529 -2.3156283 0.47763839
4.4458871 -2.3112273 0.4536449
4.4442263 -2.3103638 0.43041739
4.4354959 -2.3059237 0.40692398
4.4487891 -2.2878394 0.63686764
4.4547005 -2.2909777 0.6148271
4.4491544 -2.2881258 0.56771743
4.4513412 -2.2893486 0.54519963
4.4386315 -2.2829096 0.45188385
4.4335632 -2.2557003 0.61045742
4.4429173 -2.2604594 0.58864498
4.4189448 -2.248457 0.47163227
4.4121938 -2.2206464 0.60617518
4.4180865 -2.2236121 0.58406413
4.4169564 -2.2230432 0.56102467
4.415659 -2.222487 0.53834599
4.4178095 -2.2235694 0.51575959
