# .PCD v0.7 - Point Cloud Data file format
VERSION 0.7
FIELDS x y z
SIZE 4 4 4
TYPE F F F
COUNT 1 1 1
WIDTH 1541
HEIGHT 1
VIEWPOINT 0 0 0 1 0 0 0
POINTS 1541
DATA ascii
6.8048778 1.4498975 0.31699729
6.7947521 1.4477401 0.28520644
6.7845016 1.4455559 0.25304225
6.7817678 1.4448497 0.22122888
6.7826729 1.4450426 0.19002612
6.7911153 1.4467174 0.15852498
6.7917523 1.4468532 0.12680651
6.796062 1.4477712 0.09561263
6.7964435 1.4477284 0.063871734
6.8042989 1.4494017 0.032165624
6.8018126 1.4426682 0.0008608615
6.8132343 1.4449666 -0.030951975
6.8321304 1.4489741 -0.062941626
6.8585305 1.454573 -0.094736487
6.869523 1.4567791 -0.12697282
6.8727045 1.4574537 -0.15913664
6.8910589 1.4612204 -0.19127774
6.9359646 1.4707425 -0.22493926
7.1164002 1.5498047 1.0002122
7.0527115 1.5358057 0.95768529
7.9100456 1.7223551 0.96196723
8.0849037 1.7604293 0.94492322
8.1573009 1.7760441 0.91534525
8.2334251 1.792618 0.88495356
8.2980528 1.806689 0.85269833
8.3435431 1.8164408 0.81857681
8.2558842 1.797357 0.77104378
8.1679764 1.7782191 0.72434759
6.8739271 1.4963708 0.57770687
6.842185 1.4894609 0.54284924
6.817915 1.484053 0.50886875
6.8010435 1.4803807 0.47613394
6.7916703 1.4783404 0.44358909
6.7783642 1.4753201 0.41091087
6.7686687 1.4732099 0.37905201
6.7626657 1.4719033 0.34701478
6.7565441 1.4704474 0.3150416
6.7464199 1.468244 0.28344393
6.732357 1.4651835 0.25133345
6.7334342 1.4652948 0.21985866
6.7381482 1.4663206 0.18895616
6.7503943 1.4688623 0.15772253
6.7510281 1.4690001 0.12616464
6.7515144 1.469106 0.095075183
6.7557106 1.4698956 0.063548602
6.7635579 1.4716029 0.032003079
6.7687292 1.4665428 0.00085747609
6.7801409 1.4688915 -0.030830458
6.7990203 1.4729816 -0.062695213
6.8177624 1.4770421 -0.094261482
6.8287477 1.4792972 -0.12633726
6.8319292 1.4799863 -0.15834051
6.8540874 1.4846611 -0.19042951
6.8913236 1.4927269 -0.2237006
7.0755544 1.5732775 0.99555558
7.0043468 1.5573159 0.95215893
7.1333337 1.5859944 0.93574613
7.3758173 1.6397719 0.93301427
7.9137983 1.7593744 0.96349156
8.1074381 1.8024238 0.94861388
8.255929 1.8352848 0.84933364
8.1950798 1.8216079 0.80493128
8.0960541 1.7995964 0.75698882
7.9967732 1.7775283 0.70999014
6.848321 1.5221241 0.57623076
6.8128009 1.5142293 0.54115951
6.7847443 1.5078691 0.50700116
6.7678814 1.5041214 0.47438881
6.754704 1.5011928 0.44171956
6.7414031 1.4981134 0.40918356
6.7279019 1.495113 0.37725142
6.7218971 1.4937786 0.34537446
6.719584 1.4931415 0.31373945
6.7056541 1.4900461 0.28212175
6.6915994 1.4869231 0.25017151
6.6926708 1.4870386 0.21885723
6.7049999 1.489778 0.18832706
6.7134204 1.491526 0.15712929
6.7102385 1.490819 0.12564273
6.7107224 1.4909265 0.094711453
6.7149138 1.4917347 0.063345529
6.7265658 1.4943234 0.03197886
6.7317538 1.4893125 0.00097393931
6.7469697 1.4925554 -0.030588338
6.7620187 1.4958844 -0.062292721
6.7845588 1.5008707 -0.093770765
6.795536 1.5031747 -0.12572145
6.8025308 1.5047219 -0.15768817
6.8170457 1.5078079 -0.18945941
6.8542514 1.5160371 -0.22258715
7.0346565 1.5964272 0.99077183
7.0956688 1.6101431 0.96551895
7.1074529 1.612817 0.93326533
7.3837152 1.6753707 0.93492913
7.5542459 1.7140644 0.92061847
8.1108503 1.8403584 0.94994372
8.1604099 1.8514537 0.91762
8.2098751 1.8626765 0.8842845
8.2061481 1.8618308 0.84504014
8.10742 1.8392824 0.79710197
8.0084572 1.8168312 0.74953258
6.8150373 1.5459621 0.57399237
6.7757444 1.5370487 0.53874362
6.7477055 1.5305643 0.5047276
6.7308493 1.5267408 0.47225553
6.7176757 1.5237527 0.43972871
6.7043796 1.5206138 0.40733519
6.6946878 1.5184156 0.37575692
6.6886826 1.5170535 0.34400472
6.6901717 1.5172685 0.31267229
6.6762509 1.5141114 0.28115997
6.6622057 1.5109261 0.24931671
6.6632733 1.5110459 0.21810943
6.6717792 1.5129749 0.18757761
6.6839972 1.5156229 0.15659393
6.6846251 1.5157652 0.12528579
6.6851072 1.5158745 0.09444239
6.6892939 1.5167012 0.063165672
6.693315 1.5176129 0.031851958
6.7023296 1.5135084 0.00097062846
6.7137213 1.5159577 -0.030467298
6.728756 1.5193527 -0.062046781
6.7512755 1.5244375 -0.09340179
6.7584348 1.5259302 -0.12515704
6.7654252 1.5275085 -0.15698105
6.7761216 1.5297991 -0.18850575
6.8056784 1.536472 -0.22122538
7.0909948 1.6417787 1.0333552
6.9974289 1.6201154 0.98677033
7.0621357 1.6349671 0.96217507
7.0663438 1.6359413 0.92905313
7.414072 1.7163081 0.93998194
7.5088739 1.7382541 0.91627753
8.0762444 1.8695965 0.94713014
8.1597881 1.8887864 0.918764
8.247057 1.908987 0.88947678
8.1600523 1.8888475 0.84142935
8.0538321 1.864112 0.7929166
7.8829417 1.8245585 0.73880816
6.828342 1.5804645 0.60769939
6.78545 1.570412 0.57231683
6.7423954 1.5604475 0.53687131
6.7143769 1.5538394 0.5029788
6.6975298 1.5499407 0.47062886
6.6919584 1.5486515 0.43872419
6.6824708 1.546333 0.40665045
6.6765862 1.5449712 0.37535566
6.6705852 1.5435826 0.34365666
6.6644683 1.5420446 0.31202179
6.6543612 1.539706 0.28075722
6.6479349 1.538219 0.24926996
6.6451979 1.5374635 0.21797362
6.6536946 1.5394294 0.1874948
6.6582913 1.5403705 0.15638635
6.6627231 1.5413958 0.12523896
6.6670098 1.5423875 0.094519816
6.667388 1.5423523 0.063260674
6.6675997 1.5424014 0.032000206
6.6728225 1.5374761 0.001206346
6.6842046 1.5399758 -0.030124115
6.6992264 1.5434365 -0.061596002
6.7255316 1.5494971 -0.092897326
6.7364931 1.5518986 -0.12463354
6.7396736 1.5526313 -0.15629767
6.7465572 1.5540931 -0.18762831
6.7760892 1.5608959 -0.22023988
6.8054705 1.567664 -0.25313219
6.9482617 1.6407069 1.0135885
6.9601626 1.6435171 0.982517
7.8825078 1.8610218 0.96285224
6.7520103 1.5937437 0.57007748
6.7089896 1.5835891 0.53475642
6.6809912 1.5768571 0.50098854
6.6679459 1.5737782 0.46902809
6.6623731 1.5724629 0.43723026
6.6528893 1.570102 0.40526333
6.6470046 1.5687132 0.37407383
6.637207 1.5664009 0.34228596
6.6348891 1.5657316 0.31095383
6.6285863 1.5642443 0.27995503
6.6221633 1.5627285 0.24855694
6.6232266 1.5628574 0.21747454
6.6279125 1.5639631 0.18695879
6.6325026 1.564924 0.15593953
6.6369276 1.5659682 0.12488133
6.6374078 1.5660813 0.094196118
6.6415863 1.5669448 0.063080132
6.6341934 1.5652008 0.031872351
6.6356297 1.5594277 0.0012008407
6.6393952 1.5601906 -0.029952565
6.6544032 1.5637171 -0.061246026
6.6882882 1.5716798 -0.09247674
6.6916366 1.5723435 -0.12392939
6.6948175 1.5730909 -0.15541513
6.7016993 1.5745844 -0.18657006
6.7654128 1.5895542 -0.22011621
6.8289671 1.6044865 -0.25426415
6.9222021 1.6664743 1.0110917
6.9265552 1.6675224 0.97904402
6.7146921 1.6158979 0.56775928
6.6754928 1.6064645 0.53288126
6.6513033 1.6005205 0.49952134
6.6344767 1.5964714 0.4673987
6.6326928 1.5960423 0.43597442
6.6232142 1.593639 0.40411404
6.617331 1.5922234 0.37302962
6.6075392 1.5898674 0.34134829
6.5976324 1.5873618 0.30976677
6.5951262 1.5867589 0.2790688
6.5925012 1.5861273 0.24793802
6.5935612 1.5862606 0.21696264
6.5982399 1.5873863 0.18655248
6.5990276 1.5874538 0.15555091
6.603447 1.588517 0.12461775
6.6039252 1.588632 0.094055571
6.6043015 1.5886006 0.06302838
6.6007147 1.5877378 0.031981476
6.6059694 1.5829048 0.0014338311
6.6097336 1.5836847 -0.029612383
6.6095328 1.5836366 -0.060658801
6.6509829 1.593568 -0.091817416
6.6619277 1.5960674 -0.12326778
6.6651087 1.5968294 -0.15464637
6.6719871 1.5983542 -0.18569562
6.7280455 1.6117837 -0.21888544
6.783947 1.6251757 -0.25260571
6.8998408 1.6929759 1.0088949
6.8816295 1.6885074 0.97372603
6.6811104 1.638689 0.56551898
6.6495075 1.6309378 0.53136998
6.6253381 1.6248871 0.498099
6.6047378 1.6198349 0.4657971
6.5915909 1.6166105 0.43373227
6.5821133 1.6141642 0.40203217
6.5724392 1.6117918 0.37089193
6.5664377 1.6103201 0.33958474
6.5565343 1.6077701 0.30816361
6.5464425 1.6052954 0.27730253
6.5400219 1.603721 0.24622515
6.5448661 1.6047877 0.21558866
6.5533266 1.6068623 0.1854791
6.5616951 1.6087928 0.15483491
6.5623136 1.6089444 0.1239728
6.5703759 1.6109211 0.093676969
6.5669575 1.6099615 0.062738426
6.570961 1.6109431 0.031871069
6.5724373 1.6052259 0.0014280594
6.5761976 1.6060228 -0.029493252
6.5835872 1.6078274 -0.060484495
6.6136112 1.6151599 -0.091397919
6.6321354 1.6195612 -0.12284611
6.6353149 1.6203376 -0.15411766
6.6383958 1.6209671 -0.18495581
6.7095699 1.6383466 -0.21851486
6.7805839 1.6556866 -0.25274706
6.8660898 1.7164915 1.0052975
6.8291116 1.707247 0.96759015
6.643662 1.6602695 0.56319767
6.6158619 1.6533221 0.5294922
6.59549 1.648109 0.49662954
6.5673447 1.6410758 0.46389794
6.554204 1.6377921 0.43197507
6.540946 1.6343579 0.40018564
6.5426269 1.6347779 0.3698447
6.5328426 1.6323332 0.33844811
6.5191598 1.6287934 0.30697313
6.5052876 1.6253275 0.27609149
6.4950814 1.6227776 0.24503145
6.5037036 1.6248112 0.21469851
6.5083632 1.6259753 0.1846399
6.5242972 1.629835 0.15435365
6.5287023 1.6309355 0.12370608
6.5367551 1.6329472 0.093533553
6.5333405 1.631973 0.062719785
6.5411296 1.6339186 0.031996004
6.5426264 1.6282281 0.0016584591
6.5501752 1.6299853 -0.029172542
6.5613494 1.6327659 -0.06010903
6.5913429 1.6402297 -0.090951078
6.6022696 1.6428264 -0.12218695
6.6054487 1.6436175 -0.15335135
6.6085305 1.6442617 -0.18408395
6.6682658 1.6591245 -0.21716328
6.7278452 1.6739483 -0.25080878
6.8397961 1.7416624 1.0025507
6.8966012 1.756127 0.97822887
6.621263 1.6854006 0.56191695
6.5897141 1.67737 0.52798021
6.5655832 1.6711056 0.49492192
6.5374613 1.6639479 0.46229553
6.5243282 1.6606052 0.4304795
6.5110788 1.657112 0.39879692
6.5127521 1.6575378 0.36856127
6.5067539 1.6560112 0.33746767
6.4930825 1.6524111 0.3060818
6.4792218 1.6488837 0.27528796
6.4728069 1.6472511 0.24445994
6.4738503 1.6473964 0.21394825
6.4860702 1.650506 0.18421
6.5019851 1.654435 0.1539951
6.5025992 1.6545913 0.12334709
6.5068564 1.6556746 0.093208216
6.5072303 1.6556487 0.062537879
6.5112247 1.6566651 0.031884778
6.5089545 1.650041 0.0016517329
6.5164957 1.6518316 -0.029054366
6.527658 1.6546611 -0.059865955
6.55762 1.662256 -0.090584971
6.5685372 1.6649014 -0.12169596
6.575501 1.6666664 -0.15282346
6.5785823 1.6673251 -0.18345064
6.6382556 1.6824492 -0.21642295
6.6977725 1.6975337 -0.24996144
6.8500566 1.7761377 1.0383059
6.8133965 1.7666322 0.99992692
6.7689848 1.7551168 0.96132898
6.602531 1.7113423 0.56107545
6.5634737 1.701219 0.52658659
6.5318217 1.6928933 0.49304748
6.5074964 1.6865886 0.46081045
6.4981451 1.684165 0.42935032
6.4886813 1.6815914 0.39798808
6.4903488 1.6820236 0.36782265
6.4843545 1.6804701 0.33680022
6.4782505 1.6787676 0.30584207
6.475739 1.6781168 0.27556542
6.4844475 1.6803734 0.24529123
6.4628177 1.6746478 0.21393973
6.467464 1.6758518 0.18400419
6.4833608 1.6798503 0.15384309
6.4839735 1.680009 0.12324861
6.4844446 1.6801311 0.093108244
6.484818 1.6801071 0.062509276
6.4850268 1.6801611 0.031909011
6.4789991 1.6725675 0.0017627549
6.4865332 1.6743915 -0.02883615
6.5014663 1.6782464 -0.05957514
6.5313964 1.6859723 -0.090205736
6.542304 1.6886661 -0.12122732
6.5416994 1.6885101 -0.15208969
6.5447812 1.6891836 -0.18259379
6.6119528 1.7065203 -0.21568683
6.7318845 1.7374743 -0.25139353
6.927177 1.8285577 1.084653
6.8982949 1.8208051 1.0468119
6.7831869 1.7904223 0.99663043
6.731329 1.7767344 0.95707291
6.8628135 1.8113116 0.94274914
6.8706522 1.8133805 0.91081429
6.9871225 1.8439901 0.82626557
6.9493804 1.8338997 0.78905195
6.9152303 1.8248879 0.75212795
6.835804 1.8039277 0.71085358
6.9478898 1.8333768 0.68986034
6.9433417 1.8321766 0.6563189
6.9386425 1.8309366 0.62283486
6.5799441 1.7361621 0.55979443
6.5296288 1.7228861 0.52446938
6.4980044 1.7144204 0.49105477
6.4774661 1.7090017 0.45920762
6.4718881 1.70753 0.42810366
6.4662004 1.7059087 0.397062
6.4640913 1.7053522 0.36675277
6.4580994 1.7037714 0.33581945
6.4595447 1.7040322 0.30530706
6.4570336 1.7033699 0.27508309
6.4506326 1.7016811 0.24429063
6.4403486 1.698848 0.21343929
6.4449873 1.7000717 0.18357402
6.4533129 1.7021472 0.15330486
6.4539227 1.7023082 0.12281741
6.454392 1.7024318 0.092782497
6.4585409 1.7034056 0.062327035
6.4587488 1.7034605 0.031815983
6.4527502 1.6958569 0.0017576097
6.4602761 1.6977143 -0.028752079
6.4751925 1.7016343 -0.059401855
6.5050898 1.709491 -0.089944571
6.5084319 1.7102479 -0.12073681
6.5116076 1.7110823 -0.1515622
6.5109119 1.7107781 -0.18185541
6.5742345 1.7274165 -0.21470027
6.6374016 1.744014 -0.24814701
7.0149508 1.8845066 1.1333896
6.9414754 1.864768 1.0884122
6.8827844 1.8488723 1.0459266
6.7752767 1.8199934 0.99687535
6.6898437 1.7970442 0.95252669
6.821156 1.83219 0.93836683
6.9449654 1.8654456 0.92199111
7.7351823 2.0775564 0.99028194
7.5259418 2.0213573 0.92737454
7.0352039 1.8895524 0.83317614
7.0162859 1.88434 0.79783124
7.0009732 1.8802276 0.76259452
6.8879018 1.8498604 0.71735525
6.9585776 1.8687112 0.69197834
6.9540439 1.8674937 0.6583479
6.5422077 1.7567737 0.55746889
6.499464 1.7452956 0.52288949
6.4716325 1.7377011 0.48986533
6.4511132 1.7321914 0.45810512
6.4455371 1.7306942 0.42708996
6.4398522 1.7290472 0.39613712
6.4339747 1.7274691 0.36570147
6.4279852 1.725861 0.33487484
6.4256568 1.7251155 0.30429098
6.4193749 1.7234292 0.27402893
6.4129767 1.7217114 0.24337886
6.4064722 1.7198452 0.21279505
6.4111032 1.7210884 0.18305294
6.4194174 1.7232003 0.15290894
6.4237971 1.724376 0.12261839
6.4242649 1.7245015 0.09268894
6.4284096 1.7254938 0.062340681
6.4286175 1.7255496 0.031936694
6.4264212 1.7189493 0.0019846749
6.4263926 1.7188215 -0.028402174
6.4412942 1.7228072 -0.058926512
6.471159 1.7307949 -0.08934512
6.4858193 1.7345947 -0.12022216
6.4776759 1.7324167 -0.15071276
6.48453 1.7341286 -0.18109368
6.536468 1.7480181 -0.21347752
6.5882545 1.761867 -0.24635628
6.9978738 1.9126952 1.1659372
6.9843235 1.9089915 1.1297762
6.9332728 1.8950381 1.0884122
6.8448267 1.870735 1.041389
6.7523489 1.8454603 0.99467713
6.7715292 1.8507025 0.965298
6.8093615 1.8609146 0.93785238
6.8470602 1.8712171 0.91006881
7.8344927 2.1409233 1.0041823
7.9174109 2.1635823 0.97676682
7.1167402 1.9447839 0.84382945
7.0866547 1.9364295 0.80678606
7.0601563 1.9291888 0.76995075
6.9922404 1.9106308 0.72908312
6.9503574 1.8990558 0.69197834
6.9533339 1.8998692 0.65905929
6.5006814 1.7760683 0.55458546
6.4654889 1.7664534 0.52077132
6.4414401 1.759762 0.48815653
6.4246969 1.755188 0.45676875
6.4153614 1.7526375 0.42559317
6.409677 1.7509644 0.39474717
6.4000382 1.7483313 0.36420268
6.3940496 1.7466953 0.3335008
6.3879542 1.7449105 0.30286321
6.3779092 1.7421665 0.27258074
6.375278 1.7414479 0.24223423
6.3687768 1.7395525 0.21179308
6.3733983 1.7408149 0.18219152
6.3779325 1.7419337 0.15210037
6.3823037 1.7431276 0.12197039
6.3827686 1.7432545 0.092199102
6.3869066 1.744265 0.062011417
6.3946495 1.7463795 0.031805497
6.3962445 1.7408185 0.0019776826
6.3999863 1.7417167 -0.028318785
6.4148707 1.7457675 -0.058753908
6.4409323 1.7528601 -0.089032538
6.4518089 1.7556992 -0.1197326
6.4549823 1.7565627 -0.15036164
6.4618306 1.7583051 -0.18067229
6.521244 1.7744719 -0.21323115
6.6219382 1.8018714 -0.24790746
6.9767575 1.93981 1.1980406
6.9782748 1.9401008 1.1643305
6.9647341 1.936336 1.128222
6.9174595 1.9231929 1.0874931
6.83284 1.8995385 1.0410693
6.6883073 1.8593582 0.98667628
6.7372584 1.8729666 0.96181715
7.0963745 1.9726681 0.94460249
7.4104462 2.059835 0.95124596
7.4369783 2.06721 0.91887343
7.1978989 2.0007546 0.85474348
7.1379681 1.9839618 0.81386739
7.0778461 1.9672512 0.77306795
6.991302 1.9431968 0.73011827
6.9344893 1.9272755 0.69148272
6.7725501 1.8822684 0.64294374
6.7490625 1.8757406 0.60846233
6.4703455 1.7981563 0.55289757
6.438941 1.7894286 0.51949161
6.414916 1.7826313 0.48696488
6.3981881 1.7779828 0.45566419
6.3888588 1.7753904 0.42457727
6.3794208 1.7726477 0.39358833
6.3697886 1.7699713 0.36314881
6.3600435 1.7672634 0.33235717
6.3539515 1.7654511 0.30184412
6.3476748 1.7637072 0.27184525
6.3412828 1.7619311 0.24146241
6.3385482 1.7610521 0.21127123
6.3431625 1.7623341 0.18177526
6.3514524 1.7645179 0.15188128
6.3520546 1.7646852 0.1217685
6.3487549 1.7637684 0.092048116
6.3528881 1.7647973 0.061985478
6.3606219 1.7669457 0.031904738
6.3622355 1.7614149 0.0021999627
6.3697386 1.7633725 -0.027988009
6.3846073 1.7674886 -0.058315538
6.4031115 1.7726111 -0.088383853
6.4215064 1.777583 -0.11908039
6.4246793 1.7784612 -0.14960229
6.4352865 1.7812766 -0.17991246
6.4871068 1.7956203 -0.21213391
6.5839233 1.822419 -0.24654086
6.9608097 1.9681362 1.1967654
6.9586096 1.9673829 1.1624706
6.9450769 1.9635568 1.1264149
6.9015694 1.951256 1.0863231
6.8096104 1.9251286 1.0388
6.6503587 1.8801068 0.98227882
6.7029548 1.8949761 0.95809126
7.0914283 2.0046668 0.94509941
7.3678131 2.0826588 0.94693083
7.3905616 2.0890892 0.91425598
7.5028062 2.1208174 0.89204139
6.9677963 1.9694549 0.72855401
6.903563 1.9511693 0.68924129
6.749299 1.9075693 0.6415205
6.6846404 1.8892946 0.60339177
6.4437065 1.8210775 0.55129498
6.4085855 1.8111517 0.51767522
6.3808336 1.8031884 0.4849703
6.3641176 1.7984647 0.45379233
6.3510408 1.7947692 0.42258045
6.3416061 1.7919835 0.39173397
6.3319778 1.7892628 0.36143482
6.3259921 1.7875713 0.33098215
6.3199019 1.7857313 0.30059388
6.3136277 1.7839584 0.27071792
6.3072386 1.7821532 0.24045989
6.3157754 1.7844462 0.2107697
6.3166242 1.7846861 0.18123618
6.3211441 1.785844 0.15134141
6.3217435 1.7860134 0.12133567
6.3184462 1.7850817 0.091720738
6.3225737 1.7861286 0.061765149
6.3265381 1.7872487 0.031772587
6.3319292 1.7828064 0.0021921522
6.3394237 1.7847973 -0.027888762
6.3542747 1.7889783 -0.058109231
6.3765173 1.7952405 -0.088124052
6.3948917 1.8002932 -0.11873139
6.3943033 1.8001275 -0.14907645
6.4011416 1.8019321 -0.17917597
6.4566607 1.8175608 -0.21139562
6.5608783 1.8468983 -0.24597734
7.0558238 2.0282903 1.2148743
6.9499202 1.9977155 1.1627229
6.9326963 1.9927646 1.1260643
6.8855295 1.9792068 1.0854032
6.7936821 1.9526774 1.037912
6.6123238 1.9005505 0.97812158
6.5792947 1.891057 0.94182974
7.0453444 2.0248785 0.9403863
7.2766542 2.0912209 0.936647
7.1129327 2.0441694 0.88126862
6.9899092 2.0088139 0.83235222
6.9636183 2.0011268 0.79620498
6.9371719 1.9935268 0.75982904
6.8837495 1.9780447 0.68837059
6.7221966 1.9316226 0.63998562
6.6389108 1.9076904 0.60025257
6.4207139 1.8448702 0.55024606
6.3781462 1.8326392 0.51609045
6.3466783 1.8234776 0.48320621
6.3299761 1.8186789 0.45215037
6.3206549 1.8160007 0.42131236
6.3112268 1.8131728 0.39057243
6.3016062 1.8104087 0.36037821
6.2993727 1.8097671 0.33022881
6.2932878 1.8079 0.29992941
6.2907696 1.8071767 0.27030221
6.2918906 1.8074987 0.24040197
6.2854071 1.8055174 0.21024567
6.3012648 1.8100725 0.1812494
6.3020263 1.8101723 0.15130036
6.3026247 1.8103442 0.12134816
6.2993317 1.8093983 0.091785833
6.2997007 1.8093852 0.061847057
6.3036609 1.8105227 0.03192601
6.3053126 1.8050423 0.0024145816
6.316555 1.8081415 -0.027593251
6.3276339 1.8113128 -0.057707563
6.3498507 1.8176724 -0.087633699
6.3606958 1.8206568 -0.11801183
6.3601112 1.8204894 -0.14823204
6.3706999 1.8233999 -0.17831339
6.4261541 1.8392719 -0.21042402
6.5264945 1.867991 -0.24475421
6.9929643 2.0431638 1.1714046
6.9387536 2.0273247 1.1284742
6.8842425 2.0113978 1.0865735
6.8110652 1.9898884 1.0418843
6.5779829 1.9217923 0.97427285
6.5486937 1.9132352 0.93863529
6.9880948 2.041476 0.93392485
6.9809299 2.0392509 0.89971828
6.9587393 2.0327685 0.86325526
6.9326496 2.0251472 0.82657814
6.9063678 2.0173392 0.790658
6.8836598 2.0107062 0.75492162
6.8906288 2.0127418 0.72254759
6.8302646 1.9949801 0.68388605
6.743576 1.9696602 0.64283317
6.6043754 1.9290024 0.59788537
6.3901815 1.8663198 0.54832214
6.3476591 1.8539007 0.51427323
6.3124838 1.8435079 0.48121068
6.2995353 1.8397263 0.4505451
6.2902193 1.8370056 0.41981393
6.2882833 1.8363211 0.38964471
6.2786708 1.8335141 0.35952067
6.2764368 1.8328617 0.32944253
6.2703562 1.8309673 0.29921445
6.271585 1.8313261 0.26981866
6.2689557 1.8305583 0.23982856
6.2774692 1.8329254 0.21024567
6.2745657 1.8320776 0.18070965
6.2753243 1.8321803 0.15084979
6.2796698 1.8334489 0.12105906
6.2763796 1.8324883 0.091567032
6.2767477 1.8324769 0.061699625
6.284452 1.8347262 0.031868964
6.2823739 1.8281714 0.0024088291
6.2936029 1.8313198 -0.02752763
6.3046684 1.8345395 -0.057570573
6.326858 1.8409964 -0.087426402
6.3339405 1.8429375 -0.11766351
6.340858 1.8449501 -0.14796953
6.343936 1.8457257 -0.17778802
6.3993235 1.8618401 -0.20980947
6.4882956 1.8877259 -0.24362825
7.0932302 2.1062286 1.2246985
7.0246124 2.0857203 1.1784817
6.9779019 2.0718513 1.1365608
6.9086857 2.0512998 1.0920912
6.831923 2.0283778 1.0466729
6.5546727 1.9460632 0.97231227
6.5217032 1.9362746 0.93621075
6.8902359 2.0454292 0.82283163
6.8751397 2.040817 0.7883482
6.859899 2.036293 0.75353563
6.8705792 2.0394633 0.72162414
6.8736582 2.0402467 0.68936825
6.7572713 2.0057008 0.64521486
6.5846834 1.954473 0.59711063
6.3595662 1.8875327 0.54662979
6.3170915 1.8749261 0.51268601
6.2894249 1.8665951 0.48029938
6.2764888 1.862756 0.44970345
6.2709184 1.8611028 0.41929305
6.265245 1.8593 0.3889451
6.2556419 1.8564502 0.35889092
6.2534084 1.8557873 0.32888398
6.247334 1.853866 0.29872695
6.2448177 1.8531193 0.26924014
6.2421889 1.8523393 0.23933908
6.2432046 1.852522 0.20959435
6.2477889 1.8538823 0.18039738
6.2485461 1.8539883 0.15062673
6.2491403 1.8541647 0.12085295
6.2533431 1.8554116 0.091575921
6.2537112 1.8554021 0.061779898
6.2614059 1.8576852 0.032020885
6.2630997 1.8522425 0.0026324985
6.2705698 1.8543327 -0.027233755
6.2816224 1.8576012 -0.057204925
6.3037853 1.8641552 -0.086989649
6.3071165 1.8650205 -0.11708561
6.3140278 1.8670642 -0.14730217
6.3133607 1.8667471 -0.17692776
6.3611932 1.8808903 -0.20859462
6.4425697 1.9049519 -0.2419863
7.0950413 2.1404979 1.2266121
7.0634456 2.1308312 1.186545
7.0168304 2.1167688 1.144395
6.9514356 2.0970411 1.1002848
6.8674088 2.0715621 1.0534842
6.5276065 1.9690603 0.96956253
6.4909635 1.9580069 0.93301547
6.6358838 2.001596 0.92160118
6.7399988 2.0330005 0.90335459
6.844069 2.064261 0.88462079
6.8775749 2.0743668 0.85565406
6.8143649 2.0553019 0.81483436
6.8289948 2.0595844 0.78407991
6.8472295 2.065084 0.7531265
6.8504519 2.0660558 0.7204501
6.857245 2.0679739 0.68862057
6.8639092 2.0699837 0.65625334
6.3599944 1.9180156 0.57748884
6.3251786 1.9073956 0.54438424
6.2902074 1.8968496 0.51117098
6.2663007 1.8895212 0.47915852
6.2571082 1.8867493 0.4489004
6.2515416 1.8850708 0.4185434
6.245873 1.8832426 0.38824889
6.2325449 1.8792239 0.35803282
6.2265754 1.877424 0.32790047
6.2205052 1.8754753 0.29783255
6.2217255 1.8758432 0.26859486
6.2190976 1.8750509 0.23876514
6.2163715 1.8741107 0.20896608
6.2134705 1.8732361 0.17964077
6.2142239 1.8733449 0.14999498
6.2185545 1.8746504 0.12041849
6.2227497 1.8759152 0.09124691
6.2268567 1.8770347 0.061594926
6.2345409 1.879351 0.031925131
6.2362533 1.873932 0.002624626
6.2474551 1.8771793 -0.027168682
6.2547531 1.879372 -0.05703437
6.2768879 1.8860229 -0.08673121
6.283957 1.8880273 -0.11680749
6.2946005 1.8912253 -0.14704007
6.2939363 1.890906 -0.17661294
6.3379688 1.9041346 -0.20810352
6.4117651 1.9263055 -0.24114265
7.1003318 2.1759396 1.2294228
7.0909152 2.1729186 1.1930064
7.0554605 2.1620538 1.1524868
6.9975724 2.1443148 1.1093191
6.9173923 2.1196125 1.0628185
6.5152225 1.9963806 0.96925044
6.4749269 1.9840333 0.93218678
6.6939893 2.0510299 0.89862728
6.8460875 2.097502 0.88630992
6.835052 2.094121 0.85174543
6.827569 2.0918283 0.81774938
6.8310542 2.0927658 0.78560978
6.8381286 2.094933 0.75337619
6.8413477 2.0959194 0.72069991
6.8481336 2.0978675 0.68887061
6.8101578 2.0862339 0.65222901
6.3292203 1.9389029 0.57569009
6.2981663 1.9292694 0.54301018
6.2669587 1.9197099 0.51018775
6.2468052 1.9134172 0.47853094
6.2376223 1.9106045 0.4483251
6.2283335 1.9077592 0.41777128
6.2189412 1.9047636 0.3873156
6.2056274 1.9006858 0.35718679
6.1959319 1.8977162 0.32694647
6.1935973 1.8968829 0.29716426
6.1948133 1.8972553 0.26801443
6.1921868 1.8964509 0.23827374
6.1894627 1.8954985 0.20856375
6.186564 1.8946106 0.17932619
6.1910496 1.8958663 0.14986001
6.1916394 1.8960469 0.12028248
6.1958289 1.8973298 0.091198914
6.1961956 1.8973238 0.061599165
6.2038703 1.8996738 0.032036703
6.2056007 1.8942821 0.0028416631
6.2167897 1.897579 -0.026844179
6.2240796 1.8998041 -0.056602541
6.2424517 1.9054118 -0.086141571
6.2532501 1.9085886 -0.1161621
6.2601476 1.9106939 -0.14620002
6.2632232 1.9115131 -0.17575471
6.3034668 1.9237953 -0.20701404
6.3734374 1.94515 -0.23978518
7.1717229 2.2320952 1.2434587
7.0776844 2.2026916 1.192386
7.0643854 2.1985528 1.1555007
7.0324016 2.1885989 1.1163439
6.9745016 2.1704459 1.073038
6.5027571 2.0236404 0.96870035
6.4403439 2.0042174 0.92845803
6.5367932 2.0341072 0.91051322
6.7850475 2.1112287 0.87959182
6.8369608 2.1273818 0.85313189
6.8406105 2.1285174 0.82041597
6.836688 2.1271663 0.78731763
6.8363414 2.1270583 0.75419462
6.8395596 2.1280596 0.72148281
6.8092127 2.1184871 0.68587875
6.7824183 2.1101508 0.65044791
6.2872572 1.9560961 0.57264411
6.2636671 1.9486367 0.54076368
6.2399297 1.9412519 0.50867206
6.2197971 1.9348696 0.47710419
6.2068996 1.9308574 0.44671819
6.2013388 1.9291275 0.41652122
6.188231 1.9249314 0.38592237
6.1786532 1.9219522 0.35611352
6.1689668 1.918939 0.32596228
6.1666312 1.9180946 0.29626921
6.164115 1.9173119 0.26704571
6.1614881 1.9164948 0.23741199
6.1587648 1.9155298 0.207809
6.1595955 1.9157882 0.17878507
6.1603441 1.9159032 0.1493177
6.1609311 1.9160857 0.11984719
6.1651134 1.9173864 0.090869084
6.169209 1.918542 0.061413512
6.1731424 1.9197654 0.031920977
6.1711588 1.9132439 0.0028296874
6.1786022 1.9154334 -0.02671512
6.1896143 1.9188472 -0.056364715
6.207963 1.9245355 -0.085780717
6.2150187 1.9266039 -0.11560696
6.2256398 1.9298964 -0.1455894
6.2324443 1.9318866 -0.1751259
6.2726374 1.9443452 -0.20627822
6.3387885 1.9648502 -0.23880188
7.0863533 2.2393508 1.1957474
7.0878072 2.2398102 1.1611849
7.0669394 2.2332158 1.1236272
7.0202065 2.218313 1.0818111
6.5048962 2.0554802 0.97058874
6.4425764 2.0357878 0.93029189
6.3616757 2.0101018 0.88757128
6.7055078 2.118614 0.87071985
6.797996 2.1478357 0.84968352
6.8386316 2.1606746 0.82155514
6.8273153 2.1569681 0.78756756
6.8195615 2.1545186 0.75362581
6.811655 2.1520207 0.71977484
6.817636 2.1537793 0.65497208
6.4753146 2.0456357 0.59081858
6.2402382 1.9712521 0.53970844
6.2128153 1.9625894 0.50738376
6.1927052 1.9561179 0.47590414
6.1761041 1.9508741 0.44533738
6.1668282 1.9479439 0.41499686
6.1537323 1.9436892 0.38452223
6.1478815 1.9418411 0.35505062
6.1419234 1.9399593 0.32520294
6.1395888 1.9391041 0.29559886
6.137073 1.9383096 0.26646307
6.1307249 1.9363046 0.23677467
6.1280031 1.9353273 0.20727856
6.1325541 1.9367646 0.17846844
6.1370254 1.9380589 0.1491808
6.1376109 1.9382439 0.11978168
6.138063 1.9383864 0.090818912
6.1421533 1.9395603 0.061452698
6.1460814 1.9408008 0.032049522
6.1441221 1.9342873 0.0030459808
6.147831 1.9353369 -0.026393345
6.1588297 1.9387993 -0.055935483
6.1771555 1.9445683 -0.085245356
6.1879296 1.9478414 -0.11503356
6.1948142 1.9500084 -0.1448393
6.2016134 1.9520297 -0.17427014
6.2380314 1.9634926 -0.20519146
6.2929263 1.9807715 -0.23716687
7.0948763 2.27614 1.19885
7.1147165 2.282505 1.1672139
7.1049352 2.279367 1.1312391
7.0619807 2.2654507 1.0897614
6.5105953 2.0885687 0.97278959
6.4299474 2.0626972 0.92975909
6.3639054 2.041389 0.88911664
7.6232791 2.4452193 0.95416039
7.6532178 2.4548221 0.92069304
7.6460361 2.4523714 0.88323736
7.6423998 2.451205 0.84573108
5.9324956 1.9027745 0.62774706
5.9981017 1.9237013 0.60606694
6.33775 2.0326328 0.60971558
6.4181542 2.0584199 0.58641708
6.2389917 2.000839 0.54035056
6.1856503 1.9837327 0.50586736
6.1655626 1.9771718 0.4744767
6.1415567 1.9694736 0.44346172
6.1322856 1.9665005 0.41324583
6.1192007 1.9621868 0.38289583
6.1170654 1.9615021 0.35376188
6.1148257 1.9607837 0.32421806
6.1087747 1.9587259 0.29452398
6.1062584 1.957919 0.26549354
6.103632 1.957077 0.23605587
6.1009116 1.9560872 0.20664892
6.1054535 1.9575435 0.17792664
6.1099167 1.9588569 0.14872819
6.1104999 1.9590439 0.11941826
6.1072302 1.9579957 0.090488262
6.1113138 1.9591873 0.061229099
6.1189561 1.9616371 0.0319524
6.1170197 1.9551313 0.0030367449
6.1207242 1.9561976 -0.026313365
6.1242666 1.9573298 -0.055698611
6.1425681 1.963179 -0.084885456
6.1533298 1.9665002 -0.11454877
6.1602073 1.968698 -0.14422964
6.1707196 1.9719388 -0.17364213
6.203371 1.9823731 -0.20433395
6.2544761 1.9987044 -0.23604418
7.1178613 2.3178163 1.2045654
7.1413674 2.3254707 1.1733741
7.1389709 2.3246903 1.1383965
7.1034584 2.312989 1.0978421
6.5381765 2.1289251 0.97841179
6.4098315 2.0871341 0.92827833
6.3475595 2.0667348 0.88820291
6.2850375 2.0463779 0.8487457
7.5867038 2.470048 0.95106363
7.6534891 2.4917915 0.92216718
5.8925805 1.9183683 0.68175554
5.8954802 1.9193124 0.65344161
5.9093437 1.9238257 0.62628907
6.3498955 2.0671277 0.58111638
6.2227893 2.0256298 0.53982264
6.1621146 2.0058792 0.50476736
6.1383467 1.9980236 0.47316194
6.1143694 1.990219 0.44223416
6.1051059 1.9872038 0.41210714
6.0957432 1.9840387 0.38207835
6.0898986 1.9821364 0.35279971
6.0876579 1.981407 0.32334495
6.0853229 1.9805295 0.29391906
6.0828075 1.9797109 0.26495883
6.080183 1.9788568 0.23559241
6.0848899 1.9802712 0.20650874
6.085712 1.9805387 0.17771326
6.0864549 1.9806631 0.14847781
6.0870361 1.9808522 0.11923926
6.0837708 1.9797896 0.090379484
6.0878487 1.9809991 0.061191767
6.0917654 1.9822737 0.031967089
6.0935683 1.9769813 0.0031411664
6.0935531 1.9768587 -0.026121575
6.1008067 1.979212 -0.055451311
6.1190839 1.9851415 -0.084567517
6.1335478 1.9897155 -0.11422846
6.1441317 1.9931488 -0.14394271
6.1546311 1.9964361 -0.17331988
6.1835241 2.0058086 -0.20385298
6.2271333 2.0199542 -0.23522826
6.2706504 2.0339494 -0.26657715
7.1861205 2.3747735 1.1824186
7.1837654 2.3739953 1.1471804
7.1483421 2.3621507 1.1063614
6.4406972 2.1283112 0.96520489
6.3786178 2.1077974 0.92508101
6.3164215 2.0871224 0.88511169
6.2797275 2.0749977 0.84924322
7.2996321 2.4118612 0.91638708
7.6167493 2.5166397 0.91905475
5.917335 1.955024 0.68560004
5.9202471 1.955986 0.65712643
5.889822 1.9459339 0.62511402
5.9109273 1.9527925 0.59906745
6.2743034 2.0728409 0.57502073
6.1806226 2.0417721 0.53693247
6.1348143 2.0266392 0.50325066
6.1073751 2.0174563 0.47144863
6.0908256 2.0119896 0.44116208
6.0815711 2.0089326 0.41110629
6.0759206 2.0069485 0.38138115
6.0700812 2.0050197 0.35215512
6.0641365 2.003056 0.32255676
6.0618024 2.0021675 0.29320219
6.0592875 2.0013371 0.26431218
6.0603709 2.0016947 0.23516093
6.0613623 2.001905 0.20600475
6.0584736 2.0009508 0.17717113
6.0555053 1.9998534 0.14793427
6.0560842 2.0000443 0.11880275
6.0565305 2.0001919 0.090103604
6.0606017 2.0014191 0.061005097
6.0645123 2.0027106 0.031869628
6.0663328 1.9974421 0.0031315896
6.0663176 1.9973199 -0.026041936
6.0735617 1.9997051 -0.055282459
6.091814 2.0057144 -0.084310785
6.1062589 2.0103524 -0.11388252
6.1131196 2.0126112 -0.14342055
6.1236072 2.0159454 -0.17269228
6.1524625 2.0254447 -0.20311837
6.2034283 2.0422232 -0.23466718
6.2543011 2.05885 -0.26626149
7.2378573 2.4269516 1.1929355
7.2282267 2.4237223 1.1562304
7.1965585 2.4129639 1.1157135
6.3836508 2.1404006 0.95828617
6.3399777 2.1257575 0.92105138
6.2962112 2.1109605 0.88379794
6.2632389 2.0999057 0.84847879
7.5504723 2.5313358 0.91266328
5.9234514 1.9857535 0.68752676
5.9263673 1.9867311 0.65898234
5.8996797 1.9777843 0.62728959
5.8580909 1.9637285 0.5947929
6.1987648 2.0779281 0.56915331
6.1494904 2.061291 0.53523207
6.1037412 2.0459561 0.50165528
6.0837231 2.0391281 0.47053039
6.067194 2.0335877 0.44031337
6.0616455 2.031728 0.41057879
6.0523043 2.0284796 0.38067433
6.0427728 2.025285 0.35130328
6.033134 2.0220544 0.32159662
6.0307994 2.0211549 0.29234889
6.028285 2.0203123 0.26356417
6.0256624 2.0194333 0.23437595
6.0229478 2.0184066 0.20521852
6.0237627 2.0186796 0.17663389
6.0244999 2.0188098 0.14761251
6.0250764 2.0190032 0.11858805
6.0255213 2.0191522 0.089994371
6.0258837 2.0191565 0.06096559
6.0371962 2.0229471 0.031994421
6.0427394 2.0189409 0.0033463214
6.042726 2.0188193 -0.025755834
6.0499611 2.0212364 -0.054924719
6.0681887 2.0273261 -0.083882071
6.0863194 2.0332654 -0.11345097
6.0857644 2.0330799 -0.14276144
6.0888329 2.0339868 -0.171736
6.1250567 2.0460875 -0.20228079
6.1796556 2.0643263 -0.23387869
6.2341609 2.082413 -0.26555854
7.329505 2.4933114 1.2098223
7.2943649 2.4813578 1.1685307
7.2371855 2.4617658 1.1236666
6.6708126 2.2691112 1.0028704
6.4405494 2.1907859 0.93704188
6.2942724 2.1409066 0.88482857
6.2430124 2.1234713 0.84698588
6.2098932 2.1120851 0.81250334
7.6018157 2.5855005 0.92022431
5.9110546 2.0103302 0.68709952
5.9139643 2.0113199 0.65857279
5.8836346 2.0010047 0.62650597
5.9157286 2.0118048 0.60153061
6.1417432 2.0886672 0.56474918
6.1183233 2.0805833 0.53330445
6.0800076 2.0675538 0.50044137
6.0526376 2.0581286 0.46881625
6.0398154 2.0537684 0.43897259
6.0342693 2.0518827 0.40932703
6.0249372 2.0485921 0.37951159
6.0154147 2.0453541 0.35022831
6.0057859 2.0420802 0.32061073
5.9997563 2.0399134 0.29127276
5.9972415 2.0390582 0.26259339
5.9983144 2.039423 0.23365612
5.9919052 2.0371273 0.20446172
5.9927154 2.0374026 0.17598251
5.9897523 2.0362787 0.14697742
5.9940233 2.0377307 0.11815073
5.9944658 2.0378811 0.089662492
5.9985247 2.0391443 0.060778234
6.00982 2.042984 0.031896278
6.0190749 2.040272 0.0033381146
6.0227613 2.0414045 -0.025708459
6.0299864 2.0438533 -0.054823816
6.0481877 2.0500226 -0.08372844
6.0625939 2.0547876 -0.11317476
6.0620408 2.0546002 -0.14241388
6.0614085 2.0542681 -0.17121369
6.0901866 2.0640211 -0.2014247
6.1484065 2.0837524 -0.2330379
6.2065325 2.1033311 -0.26477006
7.3345418 2.5307846 1.1770018
7.2701783 2.5084338 1.1307521
6.5072732 2.2452083 0.97999299
6.4089494 2.2112834 0.93408042
6.3104644 2.1771801 0.88866895
6.222672 2.1468906 0.84572273
6.1895976 2.1353586 0.81129128
5.9058747 2.0373614 0.68774486
5.908783 2.0383644 0.65920049
5.882175 2.0291855 0.62750685
5.8407116 2.0147679 0.59500855
6.1031222 2.1052871 0.56226426
6.0834074 2.0983675 0.53128022
6.0525041 2.087708 0.49914744
6.0288529 2.079432 0.4678961
6.012362 2.0737441 0.43785381
6.0031343 2.0705614 0.40804657
5.9901247 2.0659573 0.37810498
5.9842982 2.0639477 0.3491593
5.9709911 2.0593584 0.31945097
5.9649668 2.057164 0.29023752
5.962451 2.0562963 0.26168099
5.9598289 2.055392 0.23272446
5.9571166 2.0543404 0.20379874
5.9579229 2.0546184 0.17544255
5.9586544 2.0547543 0.14665307
5.9592257 2.0549512 0.11786055
5.9596667 2.0551033 0.089495353
5.9637194 2.0563843 0.060736135
5.9786906 2.0615468 0.031999264
5.9879513 2.0588949 0.003546834
5.9916339 2.0600443 -0.025392547
5.9988494 2.062525 -0.054400582
6.0207195 2.0700443 -0.08325015
6.0351071 2.0748732 -0.11260674
6.0382504 2.0759542 -0.14184344
6.037622 2.0756202 -0.17057298
6.0663605 2.0854998 -0.20071159
6.1429553 2.1118317 -0.23295128
6.219451 2.1380081 -0.26548669
7.2992897 2.5541728 1.1370025
6.9536934 2.4332416 1.0488127
6.446723 2.255842 0.94101137
6.3593817 2.2251549 0.89691645
6.2278733 2.1791401 0.84771383
6.1692443 2.1585047 0.80985022
6.1287379 2.1443324 0.7744351
5.9115887 2.0682399 0.68945462
5.9144998 2.0692585 0.66083932
5.887939 2.0599658 0.62907463
5.8648963 2.0517893 0.59837866
6.079185 2.1267567 0.56090862
6.0558205 2.118464 0.52967316
6.0249572 2.1076672 0.49762934
6.0013356 2.0992863 0.46646699
5.9811854 2.0922377 0.43624404
5.9719653 2.0890124 0.40654364
5.9626503 2.0856373 0.37694159
5.953146 2.0823128 0.3478685
5.9435363 2.0789516 0.3184644
5.9375172 2.0767298 0.28934008
5.9350019 2.07585 0.26087132
5.9360647 2.0762219 0.23214805
5.9333549 2.0751579 0.20329367
5.9304724 2.0741496 0.17489904
5.931201 2.0742884 0.14619876
5.9317694 2.074487 0.11749543
5.9322085 2.0746405 0.089218102
5.9362545 2.0759394 0.060548097
5.9475155 2.0798774 0.031880673
5.95678 2.0772851 0.0035337056
5.9604578 2.0784509 -0.025298616
5.9676633 2.0809634 -0.054199595
5.989501 2.0885785 -0.082943708
6.0149326 2.0973289 -0.1124
6.0180726 2.0984237 -0.14158317
6.0174465 2.0980878 -0.17026001
6.0387697 2.1055224 -0.20010078
6.0820765 2.1206222 -0.23099136
6.1252966 2.1355717 -0.26186281
6.9721155 2.4738867 1.0536045
6.4841819 2.3007553 0.94830263
6.4225516 2.2787609 0.90758264
6.3022451 2.2360756 0.85951287
6.1633806 2.1866844 0.810673
6.1192851 2.1710398 0.77477509
6.0676947 2.1527364 0.73843139
5.9866381 2.1238611 0.69961822
5.9090428 2.0963328 0.66157728
5.8898525 2.0895245 0.63057768
5.8815098 2.0864494 0.60132658
6.0404797 2.1428435 0.55853283
6.0244794 2.137049 0.52807945
5.9936566 2.1261156 0.49614063
5.9700661 2.1176298 0.46508369
5.9536138 2.111794 0.43523335
5.9407296 2.107224 0.40537074
5.9314246 2.103807 0.37587503
5.9219308 2.1004395 0.34690672
5.9123321 2.0970349 0.31760898
5.9099965 2.0960906 0.28877094
5.9074831 2.0951991 0.26038986
5.9048634 2.09427 0.23161149
5.9058356 2.0944986 0.20299043
5.9029565 2.0934775 0.17468348
5.9036832 2.0936193 0.14607243
5.9042506 2.0938206 0.11745832
5.90837 2.0952814 0.089324549
5.9087296 2.0952928 0.060688317
5.9199739 2.0992801 0.032110732
5.9255629 2.0954425 0.0038496673
5.9255543 2.0953231 -0.024859942
5.9327507 2.097868 -0.053635623
5.9545579 2.1055791 -0.082255498
5.9799538 2.1144419 -0.11158548
5.9867749 2.1168537 -0.14073016
5.9861541 2.1165166 -0.1693016
6.0037675 2.1227443 -0.19891222
6.0433335 2.1367335 -0.22953577
6.0828142 2.1505733 -0.26010698
6.5068521 2.3408151 0.95310277
6.4854174 2.3329761 0.91789609
6.4200273 2.3094535 0.87694216
6.0771775 2.1860018 0.80058163
6.1024542 2.1950939 0.77384943
6.0728512 2.1844454 0.74021184
5.9809675 2.1512766 0.70004588
5.8888736 2.1181514 0.66034758
5.8916502 2.1191502 0.6317541
5.8869853 2.1173561 0.60282522
6.0041075 2.1593628 0.52711463
5.9696646 2.1469755 0.49492535
5.9424396 2.1370671 0.46365356
5.9223404 2.1298387 0.43362236
5.9131379 2.1265292 0.40411729
5.9038424 2.12307 0.37471062
5.8980289 2.1209793 0.34604537
5.8921123 2.1188519 0.31701642
5.886107 2.1165762 0.28805217
5.8872671 2.1169932 0.25990346
5.8883228 2.117373 0.23132288
5.8892922 2.1176057 0.20273748
5.8900914 2.1178927 0.17457458
5.8871422 2.1167164 0.1458903
5.8877082 2.1169198 0.11731187
5.888145 2.1170771 0.089157581
5.888504 2.11709 0.060574882
5.8997302 2.1211262 0.032050822
5.9016552 2.1160042 0.003840097
5.9016471 2.115885 -0.024798142
5.9125094 2.1197796 -0.053535741
5.9306068 2.1262677 -0.082052022
5.955965 2.135242 -0.11131065
5.9591002 2.1363661 -0.14029741
5.9584832 2.1360273 -0.168781
5.9760718 2.1423326 -0.19830243
6.0155792 2.1564953 -0.22883682
6.0550022 2.1705089 -0.2593202
6.5183578 2.3771274 0.95654511
6.5224361 2.3784859 0.92484218
6.5117774 2.374599 0.89112753
6.0784812 2.2164721 0.80224913
6.0709286 2.2137179 0.77129799
6.0632377 2.2109134 0.74043715
6.0189228 2.1946356 0.70582885
5.9744439 2.1784174 0.67122692
5.8823271 2.1448295 0.63197267
5.8922825 2.1483431 0.60454279
5.9642525 2.1745834 0.58267188
6.0069075 2.1901355 0.55739957
5.9836388 2.1815333 0.52637213
5.9382706 2.164993 0.49332306
5.9074225 2.1536295 0.46187085
5.8873477 2.1463108 0.43196163
5.881815 2.144294 0.40283164
5.876193 2.1421282 0.37376451
5.8703847 2.1400108 0.3451868
5.8681397 2.1391923 0.3164444
5.8694739 2.1395626 0.28791085
5.8669648 2.138648 0.25963503
5.8643503 2.1376951 0.23096354
5.8653173 2.1379316 0.2024495
5.8661141 2.138222 0.17435691
5.8705072 2.1397073 0.14592627
5.8710723 2.1399133 0.11738353
5.8715091 2.1400726 0.089264423
5.8718686 2.1400874 0.060717415
5.8794079 2.1428351 0.032209352
5.8813524 2.1377316 0.004051358
5.8813457 2.1376128 -0.024533352
5.8885212 2.1402209 -0.053183865
5.9065914 2.1467886 -0.081629165
5.9245706 2.1532061 -0.11067834
5.9277043 2.154345 -0.13955796
5.9270916 2.1540053 -0.16793613
5.9446564 2.1603887 -0.19734991
6.0024509 2.1813922 -0.2284741
6.0601559 2.2022433 -0.25972456
6.5405903 2.4176211 0.96134651
6.5628428 2.4257162 0.93206346
6.6031084 2.440599 0.90507472
6.6432657 2.4553099 0.878196
6.0612116 2.2401862 0.77129799
6.0280519 2.2279305 0.73732042
5.913013 2.1852958 0.63628781
5.8901467 2.176728 0.60529238
5.705277 2.1084087 0.53025895
5.9521532 2.1995246 0.52444166
5.9105024 2.1841333 0.49180326
5.8796978 2.1726334 0.46044001
5.8633046 2.1665759 0.4308871
5.861433 2.1658843 0.40207916
5.8558173 2.163693 0.37306544
5.8500156 2.1615493 0.34454039
5.8477716 2.1607201 0.31585142
5.8454413 2.1597431 0.28719151
5.8465943 2.1601691 0.25914821
5.8403206 2.157851 0.23038577
5.8412843 2.1580913 0.20194305
5.8420773 2.1583843 0.17392074
5.8464627 2.1598885 0.14556144
5.8470254 2.1600964 0.11709008
5.8474603 2.1602571 0.089041263
5.8478184 2.1602736 0.060565621
5.8553452 2.163054 0.032128926
5.857307 2.1579716 0.0040412424
5.8573012 2.1578531 -0.024472095
5.8644657 2.1604927 -0.053051237
5.8825078 2.1671395 -0.081426233
5.8967948 2.172286 -0.11033547
5.8999248 2.173439 -0.13912588
5.8993158 2.1730976 -0.1674162
5.9205189 2.1809082 -0.19686262
5.9928756 2.207562 -0.2284741
6.0651393 2.234061 -0.26035342
6.3601918 2.3822811 0.84238231
6.0513544 2.2666025 0.77152359
5.9673705 2.2351453 0.73130947
5.9704304 2.2361727 0.70262915
5.9733739 2.2372751 0.67349976
5.9474611 2.2274513 0.55388939
5.920608 2.2172766 0.5227319
5.8790178 2.2017009 0.49019864
5.8519053 2.1914308 0.45922729
5.842833 2.1880333 0.43029898
5.8373113 2.1859658 0.40129343
5.8317022 2.183749 0.37235072
5.8259068 2.1815789 0.34389564
5.8200102 2.1793709 0.31508008
5.8213353 2.1797512 0.28668916
5.8151746 2.1774442 0.25839135
5.8125634 2.1764667 0.22988021
5.8098679 2.1753416 0.20139995
5.8106575 2.1756375 0.17348307
5.8150344 2.1771605 0.14523096
5.8155951 2.1773703 0.11686665
5.8196864 2.1789021 0.088979222
5.8200445 2.1789205 0.060592808
5.8275595 2.1817338 0.03224561
5.8331976 2.1780427 0.0042484747
5.8405118 2.1806576 -0.024223847
5.8440065 2.1819625 -0.052734017
5.8583617 2.1873221 -0.081005022
5.868969 2.1911659 -0.10977393
5.8720965 2.1923337 -0.13847502
5.8751502 2.1933568 -0.16678135
5.8890061 2.1985295 -0.19591227
5.9429646 2.2186737 -0.22671647
5.9968362 2.2386663 -0.25761449
7.0093555 2.6603649 0.9298901
7.0495167 2.6756077 0.90026522
5.9829588 2.2708011 0.73442709
5.9678769 2.2649577 0.70348501
5.9562912 2.2605608 0.67267942
5.9300332 2.2505951 0.64043212
5.9558768 2.2602844 0.5555864
5.8853993 2.2334204 0.52047873
5.8547912 2.2218051 0.48898226
5.8313608 2.2127972 0.45836839
5.8223 2.2093589 0.42949268
5.8167839 2.2072659 0.40054053
5.8075356 2.2036405 0.37141812
5.7980995 2.2000599 0.3428176
5.7922082 2.1978245 0.31409115
5.7898788 2.1968253 0.28560936
5.7837238 2.1944897 0.25741687
5.7811131 2.1934991 0.22901274
5.778419 2.1923616 0.20063947
5.7792048 2.1926596 0.172828
5.7799206 2.192816 0.14459158
5.7841296 2.1944127 0.11642565
5.7845607 2.1945763 0.088587739
5.7849169 2.1945961 0.060326215
5.7960711 2.1988273 0.032124154
5.8053713 2.1965621 0.004235148
5.812674 2.1992095 -0.024147959
5.8161635 2.2005296 -0.052568913
5.8304963 2.2059524 -0.080752037
5.8410878 2.2098432 -0.10943174
5.8515172 2.2137887 -0.1382162
5.8545671 2.2148259 -0.16646981
5.8647499 2.2186782 -0.19542554
5.9040174 2.2335334 -0.22560033
5.9432039 2.2482393 -0.2557295
7.0012689 2.6923032 0.93063271
7.0920491 2.7272124 0.9074769
5.9983249 2.3066261 0.73776907
5.9651623 2.2937541 0.70456392
5.9318457 2.2809432 0.6712606
5.9128809 2.2736504 0.63986838
5.8974023 2.2675805 0.60948145
5.9096174 2.2722774 0.55241346
5.8537793 2.25069 0.5187664
5.8268504 2.2403362 0.48767972
5.8107266 2.2340205 0.45772681
5.7980404 2.2291431 0.42863443
5.7888918 2.2256258 0.39950219
5.779655 2.2219586 0.37046847
5.7702308 2.2183356 0.34195533
5.7643456 2.2160733 0.31331775
5.7620182 2.2150629 0.28492501
5.7595134 2.2141001 0.25698265
5.7569056 2.2130976 0.22864971
5.7505703 2.210547 0.20022079
5.7513533 2.2108479 0.1724972
5.7520671 2.2110071 0.14434999
5.7526226 2.2112205 0.11619977
5.7530527 2.2113857 0.088467322
5.7534084 2.2114072 0.06031286
5.764544 2.2156875 0.032218277
5.7738471 2.2134821 0.0044350042
5.7847867 2.2175601 -0.023855813
5.7919192 2.2202942 -0.052220307
5.8062296 2.2257802 -0.080332592
5.8168058 2.2297182 -0.10894053
5.82722 2.2337103 -0.13765325
5.8302679 2.2347617 -0.16583647
5.8440828 2.240057 -0.19484201
5.8942227 2.2592759 -0.22537999
5.9442797 2.2783439 -0.25597855
6.6421161 2.5876498 0.95009857
6.9424973 2.7045333 0.92438042
7.1451364 2.783474 0.91581517
7.2646737 2.8300412 0.89503509
5.9044466 2.3000295 0.69857126
5.9073582 2.3011637 0.66961938
5.8920398 2.2951965 0.63869071
5.8765826 2.2890573 0.60835624
5.868237 2.2858064 0.57847017
5.8452554 2.2768545 0.54732054
5.8257656 2.2691457 0.5171563
5.8061328 2.2614989 0.48676702
5.7936635 2.2565255 0.45715392
5.7809963 2.2515919 0.42809662
5.7682285 2.2466192 0.3987489
5.7517376 2.2400806 0.369302
5.7423248 2.2364147 0.34087661
5.73281 2.2327089 0.31213018
5.7341175 2.233103 0.28402448
5.7316136 2.2321279 0.25616992
5.7290068 2.2311127 0.22792614
5.7226801 2.2285337 0.19958638
5.7234588 2.228837 0.17195064
5.7241702 2.2289989 0.1438926
5.7247229 2.2292142 0.11583158
5.7251506 2.2293806 0.088187009
5.7255054 2.2294037 0.060121756
5.7293415 2.2308974 0.032075629
5.7386451 2.2287548 0.0044153929
5.7495666 2.2328811 -0.023750523
5.7566876 2.2356467 -0.051990118
5.7746167 2.2426093 -0.080029838
5.7851768 2.2465944 -0.10853072
5.7955756 2.2506325 -0.1371364
5.8022614 2.2531123 -0.16531789
5.8196945 2.259882 -0.19435582
5.8806701 2.2835596 -0.2252406
5.992497 2.3268635 -0.25848967
6.706367 2.6464417 0.9611879
6.7211924 2.652292 0.92974091
6.7539096 2.6650667 0.90106744
6.7865314 2.6779389 0.87159932
7.208909 2.8446076 0.88995945
5.9485078 2.3471382 0.70521516
5.9514422 2.3482959 0.67599726
5.8674874 2.3151693 0.63734066
5.8520517 2.3089609 0.60707557
5.8364782 2.3028162 0.57654536
5.8243876 2.2980459 0.54652047
5.8049283 2.290251 0.51640809
5.7853265 2.2825174 0.48607144
5.7656279 2.2746294 0.4559381
5.7566028 2.2710686 0.42723703
5.7438536 2.2660389 0.39796004
5.7273879 2.2594275 0.36858377
5.710732 2.2528567 0.33979645
5.7048578 2.2505395 0.31135464
5.7025309 2.2495065 0.28315786
5.7000279 2.2485192 0.25540856
5.6974225 2.2474914 0.22727165
5.6983681 2.2477493 0.19929267
5.6991444 2.2480557 0.17172724
5.6962214 2.2467875 0.14364897
5.6967721 2.247005 0.11567716
5.6971989 2.2471733 0.088120475
5.7084537 2.2514975 0.060259514
5.7159181 2.2544415 0.032269731
5.7215953 2.2509129 0.0046244105
5.7288647 2.2536573 -0.023490507
5.7432451 2.2593143 -0.051741801
5.7611442 2.2663555 -0.079763271
5.7644191 2.2675278 -0.1081096
5.7711678 2.2701824 -0.13657536
5.770577 2.2698338 -0.16447917
5.7843513 2.2752519 -0.19328801
5.8524933 2.3020551 -0.22432417
5.9677663 2.3472772 -0.25763804
6.6735797 2.6672151 0.92475569
7.1531849 2.858753 0.88461167
5.8645473 2.3436334 0.63812608
5.8310895 2.3301446 0.60594994
5.8119264 2.3224869 0.57511562
5.7998505 2.3176615 0.54516184
5.7804198 2.3097799 0.51511949
5.7608466 2.3019586 0.48485398
5.7447953 2.2954283 0.45507839
5.7104506 2.2817054 0.4245466
5.7266717 2.2881868 0.39745754
5.702991 2.2786093 0.36765003
5.6863599 2.2719646 0.33893293
5.6804929 2.2696204 0.31056237
5.6781669 2.2685761 0.28243688
5.6756654 2.2675767 0.25475782
5.6730618 2.2665365 0.22669223
5.6703782 2.2653496 0.19865757
5.6711512 2.2656581 0.17117998
5.6718574 2.2658257 0.14328252
5.6832867 2.2703915 0.11560339
5.6945934 2.2749085 0.088232875
5.7130847 2.2821798 0.060412943
5.7205367 2.2851565 0.032351788
5.7262344 2.2816403 0.0046361624
5.7334919 2.284416 -0.023550127
5.7442183 2.2886896 -0.051840045
5.7620859 2.2958088 -0.079914242
5.7617269 2.2955492 -0.10824592
5.7612076 2.2953422 -0.13657536
5.764246 2.2964363 -0.16458274
5.7743688 2.3004692 -0.19328801
5.784368 2.3044527 -0.22209625
5.7942991 2.3082922 -0.25058162
6.7547688 2.7339048 0.97176647
6.622344 2.6803076 0.91952133
6.5722589 2.6599026 0.88014734
5.8722582 2.3764815 0.64031065
5.8136387 2.3526404 0.6054185
5.7909012 2.3434389 0.57426137
5.7788434 2.3385594 0.54436046
5.7558355 2.3291318 0.51404762
5.7290721 2.3183019 0.48324353
5.7094312 2.3102381 0.45328736
5.6751399 2.2963626 0.42287701
5.6877117 2.3014495 0.39566183
5.6749096 2.2961543 0.3666966
5.6619196 2.2908983 0.33828261
5.6560602 2.2885275 0.3099831
5.6537366 2.2874722 0.28192881
5.6548553 2.287925 0.25448272
5.6522551 2.2868731 0.22647052
5.6531949 2.2871385 0.19861642
5.6575861 2.2889149 0.17128357
5.6727729 2.294944 0.14377096
5.6950455 2.3039544 0.11626048
5.720818 2.3143809 0.089010283
5.7392807 2.3217335 0.061012629
5.7431002 2.3232787 0.032752678
