# .PCD v0.7 - Point Cloud Data file format
VERSION 0.7
FIELDS x y z
SIZE 4 4 4
TYPE F F F
COUNT 1 1 1
WIDTH 1482
HEIGHT 1
VIEWPOINT 0 0 0 1 0 0 0
POINTS 1482
DATA ascii
2.5458529 -2.7332473 -0.37390456
2.4545865 -2.6353552 -0.37713045
2.3713603 -2.5459998 -0.38017824
2.2907941 -2.4595003 -0.38280591
2.2102213 -2.3730769 -0.38436192
2.1403186 -2.2980235 -0.38654256
2.0677512 -2.2201867 -0.38752043
2.0031815 -2.150857 -0.38907227
1.9386647 -2.081584 -0.38957301
1.8846771 -2.0236871 -0.39160827
1.8307546 -1.9657876 -0.39292869
1.78478 -1.916422 -0.39510518
1.7414095 -1.869918 -0.39745712
1.698096 -1.8234081 -0.39923653
1.6547961 -1.776975 -0.4002783
1.614163 -1.7333418 -0.40157118
1.5709345 -1.6869217 -0.40165737
1.5355915 -1.6490269 -0.40308341
1.4950463 -1.6054865 -0.4027907
1.462384 -1.5704114 -0.40413192
1.4245096 -1.5297928 -0.40342045
1.3919016 -1.4947748 -0.40387174
1.3540776 -1.4542062 -0.40234405
1.3293707 -1.4276723 -0.40414885
1.3020576 -1.3983395 -0.40495628
1.2773454 -1.371848 -0.40623349
9.4687166 -10.050769 3.0648336
9.4782181 -10.060854 3.0017266
9.8517199 -10.457316 3.0513601
9.725728 -10.32394 2.8782361
9.8947315 -10.503707 2.8597383
9.501111 -10.08586 2.6812356
9.4409781 -10.022026 2.5990753
9.5226021 -10.109028 2.5559528
9.2113934 -9.7786541 2.409977
9.461586 -10.044254 2.4104278
9.2470589 -9.8168592 2.2923858
9.4442978 -10.026252 2.2775617
9.4352913 -10.01704 2.2109032
8.6746807 -9.2095327 1.9734349
8.6462545 -9.1793547 1.9088861
8.6599331 -9.1941977 1.8529656
8.5728369 -9.1017284 1.7760255
8.9682703 -9.5215569 1.797941
9.0347042 -9.5924253 1.7500021
9.9753313 -10.591489 1.7981386
9.9164886 -10.52938 1.587656
9.9213572 -10.534549 1.5215707
9.8560619 -10.467414 0.39571834
9.6374941 -10.235647 0.32269055
9.4670553 -10.054629 0.25387388
9.4356117 -10.021235 0.19107956
9.3422203 -9.9223938 0.12693116
9.3398428 -9.9198685 0.064659365
9.3419876 -9.9395123 0.0033553529
9.3631287 -9.9623537 -0.059087902
9.3869219 -9.9876699 -0.12185014
9.3035278 -9.8989382 -0.18190216
8.9282274 -9.4999514 -0.2341332
7.8281922 -8.3294754 -0.25752118
7.0142388 -7.4636607 -0.2768648
6.4892406 -6.9050245 -0.29946321
5.720983 -6.0875421 -0.30221328
5.2467942 -5.5831661 -0.31169504
4.8716397 -5.1839604 -0.32196322
4.507225 -4.7961831 -0.32801148
4.2042546 -4.4739461 -0.33366883
3.9628334 -4.2170382 -0.34102681
3.7374768 -3.9772255 -0.34665716
3.5201297 -3.746067 -0.34973443
3.3402476 -3.5546396 -0.35425389
3.1736908 -3.3775103 -0.357885
3.0205932 -3.2145805 -0.36059457
2.8941791 -3.0800481 -0.36494568
2.7730799 -2.9512749 -0.3683258
2.6627445 -2.8338494 -0.37132019
2.5630777 -2.7277782 -0.37468272
2.4687223 -2.6274514 -0.37753728
2.3824465 -2.5356286 -0.38017824
2.3041615 -2.4523101 -0.38324797
2.2232111 -2.3662374 -0.38482168
2.1476705 -2.2858374 -0.38606536
2.0747657 -2.2083194 -0.38702551
2.0125473 -2.142096 -0.38907227
1.9477288 -2.0731051 -0.38957301
1.8934891 -2.0154445 -0.39160827
1.8366681 -1.9549638 -0.39236331
1.793125 -1.9086162 -0.39510518
1.7469091 -1.8594887 -0.39685673
1.706036 -1.8159814 -0.39923653
1.6625339 -1.7697377 -0.4002783
1.6243477 -1.7290893 -0.40222415
1.5835499 -1.6856607 -0.40299845
1.5427721 -1.642311 -0.40308341
1.5020373 -1.5989479 -0.4027907
1.4692223 -1.5640156 -0.40413192
1.428545 -1.5207672 -0.40268022
1.3984106 -1.4886873 -0.40387174
1.3630311 -1.4510746 -0.40311927
1.3355874 -1.4218583 -0.40414885
1.3055303 -1.3898597 -0.40414637
1.2780918 -1.3606963 -0.40457878
9.2472229 -9.7302446 2.978878
9.2565002 -9.7400064 2.917531
9.7288628 -10.237043 2.998929
9.9750051 -10.496409 3.0068295
9.7681141 -10.278704 2.8769641
9.8745489 -10.391065 2.8402541
9.8885365 -10.405785 2.7772086
9.4450169 -9.939065 2.587728
9.4131918 -9.905921 2.5144675
9.2646255 -9.7495785 2.4122665
9.3092289 -9.7965174 2.3602149
9.3429146 -9.8323097 2.3050044
9.5278311 -10.026913 2.2866378
9.1442223 -9.6235466 2.132364
8.8052216 -9.2667751 1.9934576
8.6277418 -9.0799923 1.8955866
8.718647 -9.1759834 1.8564929
8.7217331 -9.1792316 1.7981067
9.0204353 -9.4936028 1.7996116
9.063179 -9.5389214 1.7469715
9.1059446 -9.583931 1.6937997
9.8693237 -10.387745 1.6375809
9.9356308 -10.4579 1.5828903
9.9312315 -10.455462 0.39639717
9.6820717 -10.193507 0.32219982
9.4947042 -9.9962416 0.25296184
9.4227638 -9.9205017 0.18946329
9.3827391 -9.8787069 0.1264192
9.3776579 -9.8733587 0.064146966
9.3772049 -9.890152 0.0028767316
9.3903818 -9.9043951 -0.059463028
9.4089098 -9.9239368 -0.1220497
9.3466272 -9.8582449 -0.18237634
8.9776497 -9.4694014 -0.23479912
7.9101324 -8.3434114 -0.25941819
7.0225534 -7.4074736 -0.27627113
6.5327315 -6.8908033 -0.30041161
5.7555404 -6.071013 -0.30292895
5.2818384 -5.5715418 -0.31259814
4.89152 -5.1598144 -0.32203478
4.5227332 -4.7708001 -0.32785207
4.2237277 -4.4555502 -0.33388314
3.9811878 -4.1996984 -0.34122881
3.7521048 -3.9580419 -0.34659991
3.5337517 -3.7278349 -0.34964859
3.3503568 -3.5343673 -0.35385799
3.1883891 -3.3636215 -0.35804677
3.0372603 -3.2041867 -0.36106694
2.9102595 -3.0702059 -0.3654294
2.7912743 -2.9447844 -0.36917508
2.6804254 -2.8278391 -0.37219885
2.5776203 -2.7193801 -0.3752026
2.4828267 -2.6194646 -0.37807009
2.3934786 -2.5251994 -0.38029969
2.3148305 -2.4422233 -0.38336542
2.2361736 -2.3593202 -0.38539493
2.1656158 -2.2848766 -0.38760689
2.0897031 -2.2048604 -0.3881214
2.0245292 -2.136095 -0.38968763
1.9567465 -2.0645769 -0.38967231
1.9022557 -2.0071535 -0.3917048
1.8451713 -1.9469213 -0.39245695
1.8014263 -1.9007641 -0.39519662
1.7576516 -1.8546402 -0.39754629
1.7112806 -1.8057104 -0.39870536
1.6728815 -1.7652541 -0.40099856
1.6318671 -1.721975 -0.40230694
1.5855861 -1.6731385 -0.40173784
1.5446239 -1.6299714 -0.40178609
1.5037045 -1.5867912 -0.40145618
1.4733824 -1.5547935 -0.40348375
1.4404336 -1.5200773 -0.40423375
1.4101547 -1.4881243 -0.40545878
1.3746066 -1.4506614 -0.4047395
1.3470309 -1.4215599 -0.4058021
1.3168294 -1.3896874 -0.40583301
1.2866328 -1.3578675 -0.40547144
9.220974 -9.6182308 2.9568751
9.2302256 -9.6278801 2.8959811
9.5248709 -9.9352198 2.9226575
9.8195543 -10.242957 2.9464705
9.8102207 -10.233221 2.8761873
9.8879747 -10.314688 2.8311434
9.9338455 -10.362538 2.7772086
9.4484501 -9.8561954 2.5768614
9.4031544 -9.809288 2.5003293
9.3523092 -9.7562466 2.4239898
9.3545485 -9.7585821 2.3608871
9.3564129 -9.760869 2.2978053
9.5608234 -9.9741154 2.2840893
9.5117235 -9.9232397 2.2079446
9.4625177 -9.8719044 2.132494
8.6298618 -9.0032253 1.8874034
8.7880201 -9.1685457 1.8627284
8.7777596 -9.1578407 1.8014019
9.1903095 -9.5882549 1.825138
9.0698814 -9.4629431 1.740288
9.0752878 -9.4685831 1.6803963
9.2865906 -9.6893826 1.5959995
9.9172401 -10.347385 1.6380244
9.9999743 -10.434072 1.5858729
9.8846827 -10.314137 1.3707601
9.9470396 -10.381016 0.39521646
9.7264566 -10.151164 0.32219982
9.5247202 -9.9406185 0.25260353
9.4659605 -9.8792925 0.18946329
9.4284554 -9.8404942 0.12645544
9.4179468 -9.8295259 0.064128563
9.4121695 -9.8406734 0.0028742582
9.4254084 -9.8548584 -0.059411969
9.3900251 -9.8178625 -0.12124788
9.3760538 -9.803256 -0.18211415
9.0080843 -9.418849 -0.23451801
7.9491611 -8.3116398 -0.25950631
7.0305176 -7.3513632 -0.27531993
6.5870223 -6.8876286 -0.30152333
5.7819753 -6.0458422 -0.30292895
5.3060989 -5.5484424 -0.31259814
4.9139872 -5.138422 -0.32203478
4.5515957 -4.7594795 -0.32843578
4.2485199 -4.4427166 -0.3343074
4.0021696 -4.1851053 -0.34145877
3.766645 -3.9388151 -0.34635216
3.5526774 -3.7151971 -0.34991387
3.3657465 -3.5197151 -0.35385799
3.2003436 -3.3468626 -0.35774589
3.0512123 -3.1909037 -0.36106694
2.9236279 -3.0574782 -0.3654294
2.8040969 -2.9325771 -0.36917508
2.6927385 -2.8161166 -0.37219885
2.5894613 -2.7081072 -0.3752026
2.4942327 -2.6086063 -0.37807009
2.404474 -2.5147319 -0.38029969
2.3281469 -2.4349048 -0.3838076
2.2518082 -2.3551481 -0.38631472
2.1782439 -2.2782078 -0.38808423
2.1019814 -2.1985221 -0.38861644
2.0338304 -2.1272409 -0.38968763
1.9657363 -2.0560195 -0.38967231
1.9109954 -1.9988343 -0.3917048
1.8563197 -1.9416454 -0.39302245
1.812372 -1.8956777 -0.39577949
1.76306 -1.8441634 -0.39694577
1.7191433 -1.7982265 -0.39870536
1.680568 -1.757938 -0.40099856
1.6393651 -1.7148383 -0.40230694
1.5955306 -1.6689857 -0.40240851
1.5543783 -1.6259956 -0.40247408
1.5132688 -1.5829921 -0.40216172
1.4854577 -1.5538995 -0.40492994
1.4497027 -1.5165503 -0.4049741
1.4192823 -1.4847271 -0.40621662
1.3809233 -1.4446497 -0.4047395
1.3558638 -1.4184338 -0.40659469
1.3228805 -1.3839284 -0.40583301
1.2925453 -1.3522407 -0.40547144
9.1939974 -9.5067072 2.9344103
9.2032194 -9.516243 2.8739688
9.2361565 -9.5503006 2.8207691
9.6462021 -9.9746408 2.880862
9.8521872 -10.187639 2.8749161
9.9009905 -10.238462 2.8215356
9.8004084 -10.134451 2.7270041
9.3846931 -9.704566 2.5474122
9.4379148 -9.759943 2.4977348
9.4402866 -9.7623959 2.4352393
9.6699409 -9.9998865 2.4289498
9.7630424 -10.096518 2.3863213
9.5935917 -9.921279 2.281059
9.6300526 -9.9593325 2.2248075
8.7335434 -9.0321693 1.9009931
8.8870907 -9.191288 1.8747532
8.7988596 -9.1000366 1.7971156
9.1729221 -9.4869032 1.8129778
9.1838007 -9.4984856 1.753708
9.1865797 -9.5013599 1.692842
9.9515438 -10.292895 1.6357505
9.6986399 -10.032017 1.2740889
9.9271193 -10.270144 0.39214179
9.7652369 -10.10302 0.32153034
9.5625811 -9.8933544 0.25197992
9.533412 -9.8631763 0.18947123
9.4631624 -9.7908382 0.12587141
9.4498892 -9.7771063 0.063580319
9.444169 -9.7882671 0.0023961759
9.4737415 -9.8192596 -0.059922285
9.5276957 -9.8751812 -0.12294702
9.402463 -9.7453814 -0.18227224
9.2768764 -9.615551 -0.24088775
7.9907684 -8.2824898 -0.26008427
7.5667925 -7.8433099 -0.29535851
6.6441131 -6.8869123 -0.30309263
5.8191342 -6.031786 -0.30378693
5.3410897 -5.5364652 -0.31350237
4.9363532 -5.1169238 -0.32228297
4.5777292 -4.7451816 -0.32905507
4.2651486 -4.4213209 -0.3343097
4.0203843 -4.1675944 -0.34166089
3.7919066 -3.9307508 -0.34728608
3.5661399 -3.6968467 -0.34982789
3.3837683 -3.5077908 -0.3543112
3.2203157 -3.3384638 -0.35850957
3.0678003 -3.1803529 -0.3615396
2.9315283 -3.0390813 -0.36490443
2.8168569 -2.9203048 -0.3693167
2.707691 -2.8071299 -0.37270644
2.6012437 -2.6967735 -0.3753334
2.5109758 -2.6032815 -0.37901026
2.4208059 -2.5097969 -0.38127029
2.341434 -2.4275072 -0.3843675
2.2647467 -2.3480825 -0.3868885
2.1908457 -2.2714624 -0.38867173
2.1169245 -2.1948977 -0.38971299
2.0484598 -2.1239114 -0.39081612
1.9854257 -2.0585554 -0.39189279
1.9277439 -1.9988188 -0.39344525
1.8701308 -1.9390814 -0.39424747
1.8232979 -1.8905219 -0.39645407
1.7764391 -1.8419998 -0.39823616
1.7296408 -1.7934744 -0.39941049
1.690888 -1.7533528 -0.40171909
1.6494955 -1.710431 -0.403043
1.6054593 -1.664768 -0.40315992
1.5614485 -1.6191878 -0.40255257
1.5228187 -1.5791296 -0.40294385
1.4948784 -1.5501562 -0.40572819
1.461621 -1.5157219 -0.40652832
1.4283973 -1.4812684 -0.40704632
1.3898612 -1.4413563 -0.40558475
1.36203 -1.4124941 -0.40666318
1.3342016 -1.3836344 -0.4075202
1.306373 -1.3548222 -0.4080196
9.1688147 -9.3982582 2.9132569
9.1780119 -9.4076853 2.8532512
9.2964182 -9.5290546 2.8264477
9.3477716 -9.5820284 2.7792218
9.2763395 -9.5088062 2.6947484
9.3274841 -9.5615654 2.6461859
9.6543922 -9.8966789 2.6743336
9.6413794 -9.8833389 2.6053572
9.7325773 -9.9771738 2.5641713
9.7029476 -9.9468002 2.4917765
9.6919861 -9.9355621 2.4235747
9.8204489 -10.067606 2.3895931
9.7040672 -9.9482946 2.2969837
9.7111187 -9.9558716 2.2334788
9.1962767 -9.4280539 1.9927411
8.9621925 -9.1883907 1.8821207
8.8465834 -9.0698633 1.7987628
9.2277403 -9.46064 1.815636
9.3441229 -9.5802946 1.7763232
9.2901726 -9.5249815 1.7042567
9.3548174 -9.5915947 1.6549045
9.9139042 -10.165187 1.491986
9.9266996 -10.178308 1.4282824
9.6241312 -9.8684139 1.3221493
9.7531843 -10.000743 1.2755096
9.8585348 -10.10912 1.1603092
9.7955952 -10.046334 0.32108352
9.6329231 -9.8794985 0.25269517
9.5790844 -9.8242817 0.18952519
9.5003386 -9.7438612 0.12579919
9.4815521 -9.7245932 0.063507259
9.4731655 -9.7329693 0.0023927351
9.4919758 -9.752636 -0.059767891
9.6360779 -9.9006948 -0.12378697
9.4285507 -9.6874685 -0.1819568
9.1389608 -9.390255 -0.2362404
8.0377264 -8.2587395 -0.26043728
7.6635809 -7.8745813 -0.29779249
6.6768222 -6.8606544 -0.30321628
5.8426747 -6.0035405 -0.30364543
5.3651962 -5.5131078 -0.31350237
4.9613543 -5.0981326 -0.32245985
4.6092739 -4.7363458 -0.32983389
4.2871199 -4.4054642 -0.33452198
4.0385303 -4.1500125 -0.34166089
3.7981465 -3.902993 -0.34629452
3.5822365 -3.6812513 -0.34982789
3.3990417 -3.4929929 -0.3543112
3.2348516 -3.3243809 -0.35850957
3.0789328 -3.1641467 -0.36122105
2.947475 -3.0290504 -0.36524075
2.8268595 -2.9051981 -0.36896262
2.7199137 -2.7952888 -0.37270644
2.6156964 -2.6881835 -0.37572274
2.522311 -2.5923004 -0.37901026
2.4317338 -2.4992101 -0.38127029
2.3520038 -2.4172676 -0.3843675
2.2722654 -2.3353982 -0.38642845
2.1980324 -2.2591028 -0.38819426
2.1264813 -2.1856399 -0.38971299
2.0604081 -2.1177285 -0.39132899
1.9943889 -2.0498726 -0.39189279
1.936447 -1.9903884 -0.39344525
1.8785738 -1.9309031 -0.39424747
1.8342229 -1.8853167 -0.39703709
1.7844594 -1.834231 -0.39823616
1.7401395 -1.788675 -0.40002877
1.6958349 -1.7431955 -0.40108344
1.656943 -1.7032174 -0.403043
1.6127079 -1.657747 -0.40315992
1.5684986 -1.6123594 -0.40255257
1.5296944 -1.5724701 -0.40294385
1.4989513 -1.5408673 -0.40500498
1.4655463 -1.5065808 -0.40578783
1.429503 -1.4695282 -0.40553033
1.3934675 -1.4325339 -0.40480927
1.3681803 -1.4065377 -0.40666318
1.3375616 -1.3750607 -0.40671003
1.3069484 -1.343636 -0.40636435
9.2151556 -9.3636713 2.9144905
9.2243977 -9.3730621 2.8544495
9.2950935 -9.4448967 2.813005
9.4432144 -9.5957403 2.7946332
9.3473454 -9.4983225 2.7028255
9.3745556 -9.5263042 2.6472375
9.5361471 -9.6905117 2.6293485
9.6010113 -9.7564259 2.5824256
9.7545242 -9.9127703 2.5580318
9.7975569 -9.956501 2.504389
9.7137127 -9.8712969 2.4177158
9.8778477 -10.038445 2.3923731
9.8771887 -10.037775 2.3270676
9.7923927 -9.9519482 2.2416627
9.4502649 -9.6042452 2.100255
9.2861357 -9.4374418 2.0027978
9.0483274 -9.1960802 1.8913049
8.8454304 -8.9898701 1.7900865
9.9366684 -10.098927 1.9459312
9.5053749 -9.6609278 1.7984654
9.3941879 -9.5479212 1.7152038
9.426528 -9.5811253 1.6597027
9.4317465 -9.5864296 1.5982896
9.9484825 -10.11164 1.6201793
9.9778271 -10.14182 1.560167
9.6848402 -9.844018 1.3868026
9.6889467 -9.8485355 1.3246508
9.7694769 -9.9303923 1.2714714
9.8171167 -9.978816 1.2132231
9.8861971 -10.049385 1.1578977
9.7462368 -9.908844 0.31755999
9.7005939 -9.8624392 0.25285602
9.6547318 -9.8158121 0.18969198
9.5263329 -9.6856098 0.12510833
9.5074606 -9.6664219 0.062924385
9.5045967 -9.6803932 0.0019164257
9.528964 -9.7055502 -0.060208362
9.5888767 -9.766573 -0.12310981
9.467989 -9.643445 -0.18237597
9.3467474 -9.5202885 -0.24100138
8.1174536 -8.2681713 -0.26225382
7.7306867 -7.8744979 -0.2994476
6.7422442 -6.8676677 -0.30515981
5.879746 -5.9891248 -0.30450439
5.3782558 -5.4784966 -0.31313413
4.991745 -5.0847821 -0.32323924
4.6380877 -4.7245331 -0.33064914
4.311758 -4.3922749 -0.33516133
4.0593228 -4.1351256 -0.34209323
3.8151319 -3.8863747 -0.34648463
3.5982561 -3.6655772 -0.35000718
3.4169707 -3.4809 -0.3547647
3.2493174 -3.3102255 -0.35867149
3.095428 -3.1534514 -0.36169383
2.9606545 -3.0161517 -0.36538827
2.8449497 -2.8983793 -0.36981258
2.7375231 -2.7889352 -0.37358603
2.6301146 -2.6795092 -0.37624314
2.53631 -2.5840333 -0.37954375
2.4426062 -2.4885664 -0.381392
2.365238 -2.4097424 -0.38492769
2.2824244 -2.3254516 -0.3865422
2.2105749 -2.2522478 -0.38878191
2.1387022 -2.1790962 -0.39031476
2.0723317 -2.1114721 -0.39194515
2.0060153 -2.0439034 -0.39252308
1.9478127 -1.9846706 -0.39409029
1.8869714 -1.922678 -0.39434153
1.8424219 -1.8772856 -0.39712891
1.7924359 -1.8264174 -0.39832547
1.7479177 -1.7810552 -0.40011588
1.703415 -1.7357695 -0.40116835
1.664349 -1.6959615 -0.40312594
1.6172205 -1.6479379 -0.40256971
1.5755091 -1.6054901 -0.4026311
1.5338402 -1.5630283 -0.4023146
1.5029618 -1.5315623 -0.40435666
1.4694098 -1.4974241 -0.40512058
1.4385754 -1.4660019 -0.40636003
1.4023764 -1.4291627 -0.40565464
1.3742944 -1.4005443 -0.40673167
1.3435388 -1.3692012 -0.40677699
1.3127887 -1.3379105 -0.4064298
9.2747326 -9.3423176 2.9204125
9.2840338 -9.3516874 2.8602495
9.3550606 -9.4232311 2.8186829
9.5442753 -9.6141605 2.8120997
9.4210663 -9.4900494 2.7121429
9.432229 -9.501626 2.6517913
9.4432421 -9.5127201 2.5922632
9.894989 -9.9677906 2.6497746
9.7760315 -9.8483009 2.5523787
9.7515182 -9.8236074 2.4816406
9.8298874 -9.9025555 2.4358537
9.799468 -9.8722553 2.3629346
9.7688484 -9.8414087 2.2914038
9.4251785 -9.4955177 2.0238307
9.1346521 -9.203145 1.900937
8.9090919 -8.975893 1.7950269
9.29041 -9.3607235 1.5674025
9.97822 -10.05409 1.553354
9.9831142 -10.059021 1.488634
9.9877996 -10.063743 1.4238828
9.7537394 -9.8282452 1.3276334
9.8346357 -9.9097595 1.2743119
9.8441153 -9.9193125 1.2111993
9.9134979 -9.9895725 1.155979
9.9434128 -10.021466 0.32255673
9.7352819 -9.8117018 0.25264183
9.6672077 -9.7430935 0.18910003
9.565752 -9.6411781 0.12507236
9.5412941 -9.6165266 0.062870003
9.5357494 -9.6277285 0.0019142184
9.5629759 -9.6555538 -0.060156487
9.6314001 -9.7246408 -0.12310981
9.4962339 -9.5881662 -0.18211241
9.3607149 -9.4516659 -0.24029589
8.1616974 -8.2409973 -0.26251897
7.7429905 -7.8184958 -0.2985999
6.7721457 -6.8381839 -0.30515981
5.914063 -5.9717336 -0.30492929
5.4021087 -5.4549775 -0.31313413
5.0138841 -5.0629535 -0.32323924
4.6614032 -4.7070227 -0.33084399
4.3418598 -4.3845053 -0.33601093
4.0828147 -4.1229157 -0.34255365
3.8320529 -3.8696911 -0.34648463
3.6169581 -3.6526113 -0.35027274
3.4321265 -3.4659576 -0.3547647
3.2582495 -3.2904813 -0.35806918
3.1118975 -3.1426816 -0.36201251
2.9820015 -3.0115008 -0.36639765
2.8603065 -2.8887026 -0.37016678
2.749666 -2.7769639 -0.37358603
2.6445158 -2.6707697 -0.37663263
2.5502942 -2.5757027 -0.379951
2.4589057 -2.4834037 -0.38224143
2.3784606 -2.4021571 -0.38537014
2.2952785 -2.3182271 -0.38700238
2.2231088 -2.2453358 -0.38925952
2.1536422 -2.1752508 -0.39130539
2.0869739 -2.1079135 -0.39297119
2.0149145 -2.035131 -0.39252308
1.9537327 -1.9734044 -0.39354217
1.8926233 -1.9116796 -0.39377576
1.8505956 -1.8692287 -0.39712891
1.7976726 -1.8158362 -0.39772469
1.7556723 -1.7734115 -0.40011588
1.7109725 -1.7283205 -0.40116835
1.6690236 -1.6859463 -0.40247259
1.6243956 -1.6408658 -0.40256971
1.5824993 -1.5986004 -0.4026311
1.5406456 -1.5563209 -0.4023146
1.5042289 -1.5195338 -0.40290993
1.4705331 -1.4855468 -0.40363935
1.4422625 -1.4569876 -0.40560189
1.4059056 -1.4203092 -0.404879
1.3803923 -1.3945345 -0.40673167
1.346812 -1.3606101 -0.40596667
1.3132428 -1.3267434 -0.40477428
9.3262377 -9.3125744 2.9235666
9.3355904 -9.3219137 2.8633337
9.4177542 -9.4039574 2.8249397
9.5401592 -9.526515 2.7983675
9.4353285 -9.421834 2.7041459
9.5631075 -9.5497637 2.6766009
9.6583738 -9.6448975 2.6394942
9.8542194 -9.8404694 2.6270819
9.9086494 -9.8951693 2.5754533
9.8324089 -9.8190327 2.4910488
9.941103 -9.9275789 2.4524028
9.8397551 -9.8267117 2.3620377
9.8471756 -9.8341227 2.2994401
9.5157366 -9.5034542 2.0341125
9.2540503 -9.2424288 1.9171401
8.9728222 -8.9615536 1.799746
9.8516827 -9.8403406 1.5267107
9.856514 -9.8451672 1.4630905
9.796546 -9.7856092 1.3273916
9.7897253 -9.7787962 1.2627084
9.9065914 -9.8955317 1.213316
9.9953365 -9.986269 0.3225778
9.747611 -9.7387686 0.25161609
9.6571302 -9.6483698 0.18783931
9.6022034 -9.5938282 0.1247635
9.5804005 -9.5720434 0.062615506
9.5749063 -9.5832663 0.0016772291
9.6050138 -9.6137352 -0.060393672
9.7013464 -9.7101545 -0.12370072
9.5131311 -9.5217695 -0.18187293
9.2666044 -9.2753429 -0.23706773
8.2334557 -8.2412195 -0.26387137
7.7770276 -7.7846322 -0.29879194
6.7963958 -6.8030415 -0.30508006
5.9400597 -5.945868 -0.30507597
5.4230967 -5.4285893 -0.31310886
5.0386815 -5.0437846 -0.32354069
4.6818929 -4.686635 -0.33095959
4.3637018 -4.3682742 -0.33633107
4.1007614 -4.1050577 -0.34265491
3.8571622 -3.8612034 -0.34732395
3.6356111 -3.6395473 -0.35062808
3.449966 -3.4537013 -0.35513327
3.2725713 -3.2762289 -0.35815001
3.1283271 -3.1318235 -0.36240843
2.9923584 -2.995703 -0.36613509
2.875628 -2.8789425 -0.37059203
2.7617521 -2.7649353 -0.37365425
2.6533926 -2.6564507 -0.37630868
2.5615039 -2.5645459 -0.38001427
2.4752016 -2.4781411 -0.38315198
2.3916574 -2.3944974 -0.38587165
2.3081083 -2.3109298 -0.38751954
2.2328799 -2.2356095 -0.38931465
2.1631081 -2.1658282 -0.39135882
2.0961468 -2.0987825 -0.39302295
2.0237703 -2.0263152 -0.39257306
1.9623199 -1.9648559 -0.39359066
1.9036729 -1.9061333 -0.39438856
1.8587291 -1.8611313 -0.39717481
1.8083011 -1.8107013 -0.39837015
1.7633886 -1.7657292 -0.40015942
1.721216 -1.7235607 -0.40184662
1.6818018 -1.684093 -0.40382084
1.6369733 -1.6392033 -0.40395203
1.5948884 -1.5971169 -0.40404701
1.5474167 -1.5495788 -0.40235281
1.5162648 -1.5183834 -0.40439409
1.479706 -1.4818254 -0.4044165
1.4540163 -1.4560988 -0.40715408
1.4147897 -1.4168653 -0.4056896
1.386459 -1.3884932 -0.40676594
1.355431 -1.3574196 -0.40681046
1.3271065 -1.3290999 -0.40729034
9.4399605 -9.3442287 2.9464068
9.4494276 -9.3535995 2.8857033
9.4233932 -9.3278294 2.8143959
9.4212618 -9.326045 2.7515297
9.4926729 -9.3967342 2.7088041
9.7544603 -9.6562128 2.7183399
9.7766819 -9.6782112 2.66026
9.7988558 -9.700161 2.6010137
9.989954 -9.8896799 2.5853453
9.8642282 -9.7652168 2.4882917
9.9351006 -9.8353777 2.4403121
9.3464737 -9.2536278 1.9279041
9.8765268 -9.7797813 1.2683884
9.812211 -9.7181311 0.25218666
9.7046871 -9.6116381 0.18794681
9.6411982 -9.5490904 0.1247276
9.6165237 -9.5246525 0.062579386
9.6138573 -9.5386448 0.0016767454
9.6468706 -9.5717344 -0.060393672
9.7325306 -9.6567278 -0.12355991
9.5573597 -9.4829206 -0.18192571
9.2958984 -9.2238178 -0.23678525
8.2998304 -8.2354727 -0.26484442
7.3591175 -7.3023095 -0.2815091
6.859272 -6.8063226 -0.30656645
5.9742599 -5.9281421 -0.30550104
5.4522729 -5.4103732 -0.31342739
5.0523314 -5.0135055 -0.32300943
4.6884508 -4.6524215 -0.32998505
4.3771834 -4.3436975 -0.33590615
4.1158662 -4.0843792 -0.34242466
3.8739731 -3.8443367 -0.34732395
3.6486907 -3.6209042 -0.35036245
3.4622374 -3.4358706 -0.35484985
3.2813067 -3.2564316 -0.35754755
3.1447258 -3.1208863 -0.36272717
3.0081635 -2.9853592 -0.36647162
2.8826401 -2.8608873 -0.36988345
2.76827 -2.7473803 -0.37291065
2.6594408 -2.6393721 -0.37552956
2.5643971 -2.5451345 -0.37879235
2.4804788 -2.4618466 -0.38230243
2.3938184 -2.3758371 -0.3845441
2.3126633 -2.2953718 -0.38659906
2.2398617 -2.2231145 -0.38883698
2.1697876 -2.1536396 -0.39086345
2.0997875 -2.0841603 -0.39199677
2.0298457 -2.0147393 -0.39204255
1.9708745 -1.9562751 -0.39359066
1.9119719 -1.8978088 -0.39438856
1.8668321 -1.8530034 -0.39717481
1.8161845 -1.8027939 -0.39837015
1.7710762 -1.7580181 -0.40015942
1.7259847 -1.7133188 -0.40121078
1.6864008 -1.6740255 -0.40316743
1.641379 -1.6293341 -0.40328103
1.5991131 -1.5874338 -0.4033587
1.5568899 -1.5455189 -0.40305871
1.5283241 -1.5171617 -0.40584093
1.4888796 -1.4780569 -0.40515721
1.4576365 -1.4470409 -0.40639588
1.4182415 -1.4079814 -0.4049139
1.3897898 -1.3797356 -0.40597302
1.3586291 -1.3488003 -0.40600008
1.330184 -1.3206071 -0.40646252
9.5133801 -9.3350744 2.9560931
9.5229187 -9.3444338 2.8951797
9.4858923 -9.3081026 2.8204205
9.4428234 -9.2661638 2.7455108
9.3997593 -9.2239046 2.6703017
9.8895559 -9.7048769 2.7436585
9.7641373 -9.5818005 2.6449497
9.9918375 -9.8052492 2.6403513
9.8354549 -9.6521235 2.4698896
9.895587 -9.7111349 2.419677
9.9719181 -9.7863846 2.3726699
9.599206 -9.4212646 1.9710575
9.8429089 -9.6604509 1.9567904
9.9607792 -9.7775011 1.273226
9.8601017 -9.6807032 0.25184694
9.7521124 -9.5746794 0.18757725
9.6799879 -9.5041981 0.12421816
9.6496315 -9.4743929 0.062053151
9.6498156 -9.491128 0.0012033121
9.6801872 -9.5213318 -0.060815554
9.7606468 -9.6004705 -0.1238618
9.6014261 -9.4438639 -0.1824486
9.347188 -9.1941185 -0.23752539
8.3440304 -8.2073889 -0.26551834
7.3909025 -7.270123 -0.28187099
6.9055972 -6.7927485 -0.30764773
6.0084105 -5.910223 -0.30622035
5.4702554 -5.3810501 -0.31337669
5.085278 -5.0023508 -0.32396677
4.7142606 -4.6373839 -0.33060569
4.3905249 -4.319078 -0.33569622
4.1364198 -4.0691075 -0.34285748
3.8907015 -3.8273883 -0.34751445
3.6644464 -3.6049409 -0.35054189
3.4771872 -3.4207225 -0.35502011
3.2982516 -3.2448058 -0.35801029
3.1527538 -3.1016655 -0.36224407
3.0072806 -2.9585497 -0.36493626
2.8978596 -2.8510013 -0.37037966
2.782994 -2.7379932 -0.37341872
2.6709223 -2.6277337 -0.37566036
2.5754685 -2.5339119 -0.37891847
2.4884195 -2.4482675 -0.38199949
2.401386 -2.3626382 -0.38421917
2.3226471 -2.2852495 -0.38671282
2.2495308 -2.2133105 -0.38894713
2.1791544 -2.1441422 -0.39097014
2.1088517 -2.0749691 -0.39210007
2.0386076 -2.0058537 -0.39214239
1.9793818 -1.9476472 -0.39368758
1.9202247 -1.8894385 -0.39448258
1.8721365 -1.8421214 -0.39668328
1.8212723 -1.7921352 -0.39785847
1.7759711 -1.7475587 -0.39962792
1.7306869 -1.7030585 -0.40065971
1.6909341 -1.6639402 -0.4025968
1.6484625 -1.6221468 -0.40336174
1.608755 -1.5831283 -0.40412581
1.5663469 -1.5413958 -0.40384129
1.5349193 -1.5104688 -0.40591612
1.4980382 -1.4742267 -0.40597126
1.4666575 -1.4433448 -0.40722591
1.42709 -1.4044553 -0.40575948
1.3930606 -1.3709655 -0.40524831
1.3644912 -1.3428494 -0.40606692
1.3413651 -1.3201361 -0.40818384
9.5868244 -9.3253841 2.9662426
9.5964365 -9.3347349 2.9051204
9.6085882 -9.3465538 2.8447485
9.5133228 -9.2542095 2.7542417
9.5222416 -9.262886 2.6935892
9.9318075 -9.6616335 2.7436585
9.7893581 -9.5230598 2.6405008
9.9133043 -9.6439705 2.4788485
9.893734 -9.6249323 2.408932
9.8737469 -9.6058235 2.3393166
9.877058 -9.6130724 0.25120628
9.7854004 -9.5238638 0.18741642
9.7185659 -9.4591465 0.1241824
9.6880798 -9.4294739 0.062035229
9.6827459 -9.4407511 0.0012022703
9.7132492 -9.4708223 -0.060763068
9.7604933 -9.5168877 -0.12333172
9.6229649 -9.3827925 -0.1820782
9.3900118 -9.1559725 -0.23759615
7.4141669 -7.2296267 -0.28155246
6.965919 -6.7925358 -0.30901176
6.0509105 -5.9003019 -0.30707136
5.5048599 -5.3680301 -0.31401429
5.1098504 -4.9828391 -0.32414401
4.7400365 -4.6222172 -0.3309958
4.4093289 -4.29988 -0.33569622
4.1569266 -4.0537429 -0.34308788
3.9073646 -3.8103755 -0.34751445
3.680141 -3.5889175 -0.35054189
3.4865015 -3.4000778 -0.35445297
3.3263195 -3.2439795 -0.35951707
3.1662571 -3.0878797 -0.36224407
3.0313056 -2.9562685 -0.36628288
2.9102716 -2.8383298 -0.37037966
2.8032656 -2.733969 -0.37453452
2.6879277 -2.6214821 -0.37643975
2.583719 -2.5199375 -0.37851104
2.4907389 -2.4292526 -0.38072476
2.4061151 -2.3467181 -0.38333389
2.3325963 -2.2750933 -0.38671282
2.2619421 -2.206181 -0.38942495
2.1857154 -2.1319079 -0.39047462
2.1178854 -2.0657477 -0.39210007
2.0501108 -1.9996415 -0.39267302
1.9878612 -1.938992 -0.39368758
1.9284506 -1.881042 -0.39448258
1.8801564 -1.8339351 -0.39668328
1.8318375 -1.7868665 -0.39845946
1.7835792 -1.7397929 -0.39962792
1.7381014 -1.6954907 -0.40065971
1.6981782 -1.6565464 -0.4025968
1.6555248 -1.6149386 -0.40336174
1.6101426 -1.5707238 -0.40274888
1.5703075 -1.5318639 -0.40313527
1.5387475 -1.5010767 -0.40519255
1.5072018 -1.4703544 -0.40671209
1.4729414 -1.4369316 -0.40722591
1.4332045 -1.3982151 -0.40575948
1.401767 -1.3675451 -0.40604135
1.3676023 -1.3342144 -0.40525639
1.3416475 -1.308939 -0.40652794
9.3611746 -9.0267296 2.8839724
9.3705597 -9.035779 2.8245406
9.6465635 -9.3019218 2.8437035
9.5976973 -9.255125 2.7667089
9.5488224 -9.2079945 2.6894763
9.9408045 -9.5863209 2.7343123
9.8170471 -9.4669762 2.6365552
9.8339024 -9.4832306 2.5764027
9.9885321 -9.6326828 2.486876
9.9966049 -9.6404676 2.4234641
9.9104795 -9.5617514 0.25075239
9.8268652 -9.4810791 0.18717809
9.7681808 -9.4247894 0.12405279
9.737565 -9.3952503 0.061852839
9.7238464 -9.3984127 0.0009662417
9.7123499 -9.3876286 -0.060736384
9.8019238 -9.4742069 -0.12356964
9.6132593 -9.291851 -0.1813591
9.427062 -9.1121969 -0.23775423
8.4097157 -8.12883 -0.26554528
7.4849439 -7.2351985 -0.2832205
7.001101 -6.7674999 -0.30942971
6.0765939 -5.8738403 -0.30721885
5.5366445 -5.3520937 -0.3146269
5.1371508 -4.9659162 -0.32462314
4.7685704 -4.6096215 -0.33169669
4.4280443 -4.2805958 -0.33580369
4.1717672 -4.0328522 -0.34295875
3.923949 -3.7932861 -0.3476097
3.7041669 -3.5809476 -0.3514291
3.4928963 -3.3767049 -0.35368708
3.3376377 -3.2267237 -0.35929674
3.1796958 -3.0740304 -0.36232126
3.0469692 -2.9457145 -0.36669353
2.9282174 -2.8310077 -0.37115958
2.8123677 -2.7190042 -0.37423086
2.7021301 -2.612426 -0.37689504
2.600271 -2.5140362 -0.37938902
2.5041015 -2.421056 -0.38121045
2.4219074 -2.3415878 -0.38427797
2.3424962 -2.2648892 -0.38676968
2.2715421 -2.1962857 -0.38948011
2.1977773 -2.1250393 -0.39102352
2.1296575 -2.0591741 -0.39266497
2.0588114 -1.9906725 -0.39272299
1.9962977 -1.9302952 -0.39373603
1.9394133 -1.8752916 -0.39509565
1.8909123 -1.8283941 -0.39731252
1.8396118 -1.7788517 -0.39850414
1.7939211 -1.7346703 -0.4002901
1.7482483 -1.690565 -0.40133813
1.7081535 -1.6517931 -0.40329182
1.6625504 -1.6076947 -0.40340212
1.6197398 -1.5663514 -0.40347666
1.5769715 -1.5249927 -0.40317357
1.5425181 -1.4916749 -0.40450644
1.5108409 -1.4610929 -0.40600795
1.479192 -1.4304861 -0.40726182
1.4392866 -1.3919433 -0.40579444
1.4077157 -1.3614109 -0.40607554
1.3761526 -1.330886 -0.40610033
1.350085 -1.3057214 -0.40738869
9.348094 -8.93573 2.8679035
9.3574657 -8.9446888 2.8088026
9.3113985 -8.9006538 2.7334259
9.6877546 -9.2607307 2.7809947
9.887784 -9.4519434 2.7733042
9.9299107 -9.4925451 2.7198973
9.8194485 -9.3869486 2.6261749
9.9377403 -9.5006933 2.3344986
9.9746866 -9.5400143 0.25132132
9.8907213 -9.4597082 0.18760642
9.8402624 -9.4117765 0.12444548
9.8292789 -9.4012718 0.062174246
9.7957888 -9.385622 0.0009693118
9.8124485 -9.4019127 -0.061105229
9.8798342 -9.4664793 -0.12402993
9.6988354 -9.2930527 -0.18220681
9.449811 -9.0547638 -0.23732929
8.4902201 -8.1352882 -0.2669639
7.5389972 -7.2240834 -0.28407037
6.9967351 -6.7044725 -0.30794087
6.0993471 -5.8445697 -0.30707696
5.5768528 -5.3440871 -0.31558368
5.1644044 -4.9488535 -0.32497773
4.7830048 -4.5833726 -0.33130646
4.4466796 -4.2612338 -0.33580369
4.1865087 -4.0119128 -0.34272826
3.9376483 -3.7734313 -0.34736142
3.714129 -3.5593581 -0.35089743
3.5047839 -3.3587365 -0.35340345
3.351685 -3.2121298 -0.35929674
3.1987002 -3.0655148 -0.36295915
3.0597932 -2.9323914 -0.36669353
2.9349251 -2.8128207 -0.37045059
2.8185902 -2.7013259 -0.37348685
2.7106969 -2.5979216 -0.37650526
2.6140206 -2.5053546 -0.37979653
2.5202484 -2.4154806 -0.38206044
2.4321012 -2.3309979 -0.38427797
2.3523562 -2.2546465 -0.38676968
2.2755055 -2.1809881 -0.38852432
2.2014341 -2.1100671 -0.39003232
2.1330309 -2.044503 -0.3916384
2.0674777 -1.9816704 -0.39272299
2.0102854 -1.9269189 -0.39483282
1.9531578 -1.8721604 -0.39622772
1.9016604 -1.8227987 -0.39789596
1.8501422 -1.773479 -0.39910519
1.801473 -1.7268263 -0.4002901
1.7556082 -1.6829208 -0.40133813
1.7153445 -1.6443242 -0.40329182
1.6723275 -1.6030881 -0.40407333
1.6265589 -1.5592691 -0.40347666
1.5836105 -1.5180974 -0.40317357
1.5490121 -1.4849303 -0.40450644
1.5172018 -1.4544867 -0.40600795
1.4826535 -1.4213666 -0.40650341
1.4453464 -1.38565 -0.40579444
1.4136425 -1.3552556 -0.40607554
1.3819466 -1.3248688 -0.40610033
1.3530138 -1.2971762 -0.40656066
9.3732262 -8.8818102 2.863224
9.3826218 -8.8907127 2.8042099
9.4001427 -8.9073153 2.7475696
9.7531271 -9.2421169 2.7876687
9.8762026 -9.3587437 2.7580817
9.9943371 -9.4713516 2.5311508
9.9776134 -9.4601307 0.12517929
9.9750891 -9.4577379 0.06235509
9.9272823 -9.428875 0.00050032273
9.9213514 -9.4235706 -0.062004406
9.9918461 -9.4905291 -0.12539613
9.7449512 -9.2560215 -0.18278192
9.4892244 -9.0134401 -0.23778613
8.531292 -8.1035385 -0.26755196
7.5845947 -7.2045593 -0.28496671
7.0259147 -6.6738725 -0.30827913
6.1332736 -5.8259587 -0.30779794
5.6029391 -5.3223834 -0.31601292
5.1915989 -4.9316401 -0.32558227
4.805778 -4.5651383 -0.33173296
4.4708776 -4.2471557 -0.33644429
4.201138 -3.9909139 -0.34270003
3.956893 -3.7588906 -0.34780023
3.72679 -3.5404258 -0.35081103
3.5222213 -3.346087 -0.35385665
3.3600125 -3.1921012 -0.35885566
3.214859 -3.0542014 -0.36343288
3.0725498 -2.919004 -0.36684147
2.9499812 -2.8026586 -0.37094712
2.8359787 -2.6943493 -0.37436742
2.7248149 -2.5887372 -0.37702623
2.6249177 -2.4939158 -0.37992293
2.5279391 -2.4017773 -0.38175717
2.4450529 -2.3230276 -0.3848384
2.3621616 -2.2443519 -0.38688341
2.287801 -2.1736996 -0.38911238
2.216228 -2.1057699 -0.39113021
2.1447289 -2.0378342 -0.39225498
2.0789003 -1.9752867 -0.39335382
2.0186639 -1.9181195 -0.39493001
1.961298 -1.8636109 -0.39632216
1.9095857 -1.8144743 -0.3979879
1.8578528 -1.7653798 -0.39919466
1.8117764 -1.7215967 -0.40099603
1.7657182 -1.6778897 -0.4020592
1.7224927 -1.6368142 -0.40337476
1.6765065 -1.5931156 -0.40348285
1.6333368 -1.5521473 -0.40355533
1.5929941 -1.51381 -0.40395635
1.5554663 -1.4781476 -0.40458137
1.5207433 -1.445201 -0.40534028
1.4860532 -1.4122343 -0.40581658
1.4513683 -1.3793206 -0.40586433
1.4167596 -1.3464298 -0.40535066
1.387704 -1.3188165 -0.40616715
1.3641849 -1.2965102 -0.4082824
9.4535856 -8.8799915 2.8759081
9.4630613 -8.8888931 2.8166325
9.4890518 -8.9133062 2.7621627
9.7822094 -9.1889982 2.7844944
9.8667173 -9.2683811 2.7441127
9.7738705 -9.2027025 -0.18256944
9.5341492 -8.9773045 -0.23792805
8.5608826 -8.0608826 -0.26737434
7.621644 -7.1767507 -0.28517944
6.9867492 -6.5789161 -0.30529821
6.1756878 -5.8151984 -0.30865017
5.6346335 -5.3059125 -0.31649172
5.2215905 -4.916966 -0.32611457
4.8313317 -4.5494747 -0.33212346
4.4922066 -4.2302814 -0.33665711
4.2241893 -3.9778917 -0.34316128
3.9704185 -3.7389174 -0.34755179
3.7422025 -3.5241308 -0.35081103
3.5481327 -3.3413703 -0.35499173
3.3824143 -3.1854203 -0.35976034
3.2253206 -3.0374758 -0.36311382
3.0937564 -2.913574 -0.36785203
2.9650137 -2.7924273 -0.37130177
2.8448772 -2.6792834 -0.37399527
2.7332551 -2.5741587 -0.37663633
2.6357744 -2.4824388 -0.37992293
2.5412214 -2.3933864 -0.38218227
2.4579911 -2.3149979 -0.38528126
2.3747559 -2.2366831 -0.387344
2.300086 -2.1663547 -0.38959041
2.225395 -2.0960798 -0.39113021
2.156419 -2.0311117 -0.39276838
2.0903165 -1.9688505 -0.39388466
2.0298293 -1.911945 -0.39547852
1.9694108 -1.8550354 -0.39632216
1.9146731 -1.8034766 -0.39740434
1.8627285 -1.7546101 -0.39859346
1.819271 -1.713675 -0.40099603
1.7730227 -1.6701694 -0.4020592
1.726815 -1.6266422 -0.40272102
1.6862429 -1.5884238 -0.40415421
1.6428925 -1.5476424 -0.40424398
1.6051772 -1.5121136 -0.4053688
1.5646952 -1.4739786 -0.40530512
1.5270346 -1.4385519 -0.40534028
1.489412 -1.4031092 -0.40505806
1.457373 -1.3729746 -0.40586433
1.425405 -1.3428581 -0.4061439
1.3962265 -1.3153692 -0.40697786
1.3642718 -1.28531 -0.40662608
9.5844193 -8.924489 2.9033558
9.5940247 -8.9334335 2.8435049
9.6565657 -8.9916677 2.7989957
9.9771786 -9.2905312 2.7630382
9.8224926 -9.1679592 -0.18319783
9.5817881 -8.9436073 -0.23859845
8.5959663 -8.0234451 -0.2677848
7.6642962 -7.1540775 -0.2859709
6.8983622 -6.4391327 -0.30053514
6.2067022 -5.7935166 -0.30923063
5.6463108 -5.2706156 -0.31612292
5.2429867 -4.8941278 -0.32636493
4.856832 -4.5336671 -0.33274588
4.5134645 -4.213294 -0.33708543
4.241497 -3.959414 -0.34336382
3.9866858 -3.7215493 -0.34774217
3.7632322 -3.5130794 -0.35152268
3.5712128 -3.3338242 -0.35601357
3.3991187 -3.1732805 -0.36022422
3.238534 -3.0233653 -0.36326846
3.1092751 -2.9026942 -0.36833736
2.9800038 -2.7821093 -0.37179872
2.8593733 -2.6694894 -0.37450394
2.7416103 -2.5595467 -0.37637737
2.6380522 -2.4629519 -0.37882599
2.5431156 -2.3743167 -0.38102838
2.4623852 -2.2989447 -0.38451317
2.3816473 -2.2236435 -0.38699716
2.3095067 -2.1562889 -0.38970068
2.2401738 -2.091629 -0.39222866
2.168081 -2.0243168 -0.39338535
2.0988772 -1.9597017 -0.39398488
2.0353155 -1.9004211 -0.39502722
1.9746511 -1.8437774 -0.39585027
1.9225138 -1.7950957 -0.39749616
1.8675355 -1.7438221 -0.39808145
1.8239017 -1.7030787 -0.4004643
1.7774661 -1.6597773 -0.40150791
1.731071 -1.6164541 -0.40214992
1.6903348 -1.5784152 -0.40356356
1.6468091 -1.5378252 -0.40363398
1.6089414 -1.5024635 -0.40473941
1.5711014 -1.4671277 -0.40538016
1.5360897 -1.4344833 -0.40615466
1.4983102 -1.3992027 -0.40588814
1.4633394 -1.366593 -0.40593421
1.428445 -1.3340055 -0.40541887
1.3991495 -1.3066468 -0.40623397
1.3698566 -1.2793354 -0.40669149
9.6765127 -8.9317312 2.91942
9.6862106 -8.9406824 2.8592377
9.6283169 -8.8872452 2.7795415
9.9821577 -9.2144966 2.560976
9.8681355 -9.1303186 -0.18330432
9.6235876 -8.9043665 -0.23866956
8.6767569 -8.0282974 -0.26920778
7.7011709 -7.1258717 -0.28618392
7.0438862 -6.5176883 -0.30563319
6.234787 -5.769031 -0.30937281
5.6692543 -5.2459288 -0.31612292
5.2700195 -4.8765049 -0.32672006
4.8765678 -4.5124321 -0.33274588
4.531805 -4.1935601 -0.33708543
4.2587328 -3.9408693 -0.34336382
4.0000248 -3.7014709 -0.34749359
3.7813854 -3.4992728 -0.35178879
3.582866 -3.3155639 -0.35572967
3.4072156 -3.1531284 -0.35962084
3.2545524 -3.0118499 -0.36358768
3.1161983 -2.8838134 -0.36766338
3.003535 -2.779649 -0.37321779
2.8709941 -2.6569877 -0.37450394
2.7527523 -2.5475597 -0.37637737
2.6516249 -2.4540565 -0.37923375
2.5534513 -2.3631978 -0.38102838
2.4695444 -2.2855425 -0.38407016
2.3884802 -2.2105958 -0.38653645
2.3188932 -2.1461914 -0.38970068
2.2464354 -2.0792027 -0.39173281
2.1740513 -2.012207 -0.3928718
2.1045678 -1.9478961 -0.3934539
2.04075 -1.8888953 -0.39447856
1.9798409 -1.8325185 -0.39528397
1.9274936 -1.7840664 -0.39691246
1.8722939 -1.733035 -0.39748013
1.8284849 -1.6924844 -0.39984536
1.7790345 -1.6467698 -0.4002353
1.7352815 -1.6062695 -0.40149602
1.6943818 -1.5684106 -0.40289208
1.6535034 -1.530625 -0.40363398
1.6154817 -1.4954289 -0.40473941
1.5774879 -1.4602585 -0.40538016
1.5423342 -1.4277672 -0.40615466
1.5044011 -1.3926518 -0.40588814
1.4692883 -1.3601949 -0.40593421
1.434252 -1.3277601 -0.40541887
1.4048375 -1.3005295 -0.40623397
1.3726244 -1.2707527 -0.40586323
9.687294 -8.8637142 2.9107361
9.6970024 -8.8725977 2.8507278
9.6811352 -8.858079 2.7833652
9.9021206 -9.081892 -0.18343233
9.7112761 -8.9071674 -0.24010818
8.7289686 -8.006197 -0.2699481
7.827148 -7.1792998 -0.289884
7.0866404 -6.5000834 -0.30642274
6.257019 -5.7391295 -0.3093788
5.6920857 -5.2211385 -0.31625775
5.3027458 -4.8640113 -0.32755589
4.8962059 -4.4911075 -0.33286184
4.5500555 -4.1737428 -0.33719319
4.2758832 -3.9222457 -0.34346509
4.0276241 -3.694519 -0.34858325
3.7966135 -3.4827361 -0.3518787
3.5972941 -3.299895 -0.35581484
3.4266763 -3.1434929 -0.36030537
3.2733963 -3.0028799 -0.36430365
3.1373501 -2.8780768 -0.36874869
3.0041637 -2.7559938 -0.37186986
2.8796897 -2.6418023 -0.3741999
2.760973 -2.5328925 -0.37605274
2.65944 -2.4398324 -0.37888896
2.5637336 -2.3520293 -0.38108909
2.4794884 -2.2747409 -0.3841289
2.4038146 -2.2053931 -0.3875148
2.3310874 -2.138669 -0.39023405
2.2583363 -2.0719957 -0.39228216
2.1856587 -2.0053151 -0.39343712
2.1158936 -1.9413065 -0.39403501
2.0518169 -1.8825829 -0.3950758
1.9906607 -1.8264707 -0.39589745
1.9381006 -1.7782458 -0.39754206
1.8826767 -1.7274538 -0.39812604
1.8330053 -1.6818777 -0.39926982
1.7861978 -1.6389868 -0.40027761
1.7479435 -1.6038853 -0.4028452
1.7068747 -1.5662012 -0.40427548
1.6629941 -1.5259906 -0.40436217
1.6163248 -1.4831661 -0.40336502
1.5838393 -1.4533567 -0.40541768
1.548544 -1.4210191 -0.40619135
1.5132815 -1.3886604 -0.40668264
1.4752041 -1.3537662 -0.40596917
1.4400266 -1.3214846 -0.405453
1.4076781 -1.2917989 -0.40545648
1.3809634 -1.2673278 -0.40672421
9.6835041 -8.7829294 2.8980548
9.6932087 -8.7917318 2.8383081
9.6913891 -8.790081 2.77526
9.9185333 -9.0175791 -0.18300574
9.7442684 -8.8594542 -0.23996586
8.7753773 -7.9785419 -0.27030411
7.8699555 -7.1555867 -0.29031029
7.0253839 -6.3876781 -0.30256602
6.2964425 -5.7249041 -0.31009004
5.7263641 -5.2067552 -0.31689698
5.3239183 -4.8408275 -0.32755589
4.9157557 -4.4697008 -0.33286184
4.5739951 -4.1590977 -0.33761922
4.2929564 -3.9035513 -0.34346509
4.0494747 -3.6821554 -0.3490805
3.8175402 -3.4713807 -0.35241106
3.6087759 -3.2815466 -0.35553089
3.4374783 -3.1258912 -0.36000362
3.2893479 -2.9911878 -0.36462292
3.1326029 -2.8486507 -0.36672628
3.0132825 -2.7402422 -0.37151504
2.8768053 -2.6161315 -0.37233821
2.7719984 -2.5208213 -0.37605274
2.6700604 -2.4282055 -0.37888896
2.5768445 -2.3434329 -0.38151443
2.4951327 -2.2691228 -0.38501501
2.4191539 -2.2001033 -0.38843635
2.3403969 -2.1284776 -0.39023405
2.2702219 -2.0647292 -0.3927781
2.1972525 -1.9983648 -0.39395073
2.13007 -1.9372634 -0.39509711
2.0657339 -1.8788167 -0.39617324
2.0014703 -1.8203679 -0.39646381
1.9458411 -1.7697723 -0.39754206
1.8930515 -1.7218198 -0.39872745
1.8431797 -1.676459 -0.39988884
1.7961832 -1.6337708 -0.40091398
1.7549251 -1.5962433 -0.4028452
1.7108456 -1.5561494 -0.40360394
1.6667924 -1.5161327 -0.40367329
1.6227809 -1.4760994 -0.40336502
1.5901656 -1.4464321 -0.40541768
1.5547297 -1.4142488 -0.40619135
1.5221608 -1.3846227 -0.40744138
1.481097 -1.3473166 -0.40596917
1.4486083 -1.3177625 -0.40624645
1.4161279 -1.2882158 -0.40626737
1.3836563 -1.2587214 -0.40589586
9.741662 -8.7585106 2.9035156
9.7514229 -8.7672863 2.8436463
9.7354059 -8.7528858 2.7764242
9.9577808 -8.9742117 -0.18347366
9.7567158 -8.7933149 -0.23978385
8.8420095 -7.9689293 -0.27169865
7.9126973 -7.1316295 -0.29110843
7.1227846 -6.4196897 -0.30588657
6.3242536 -5.6999822 -0.31052947
5.7606168 -5.1921644 -0.3178069
5.3391843 -4.8123183 -0.32745153
4.9352031 -4.4482017 -0.33309376
4.5949874 -4.1417036 -0.33804816
4.315732 -3.8899961 -0.34412953
4.077076 -3.6748829 -0.35026664
3.8384309 -3.4599011 -0.35312378
3.6288383 -3.2709775 -0.35626936
3.4510756 -3.1108541 -0.3601658
3.3139255 -2.9872251 -0.36605582
3.1421025 -2.832341 -0.36653689
3.0223112 -2.7244549 -0.37130222
2.8997359 -2.6139598 -0.37396383
2.7829614 -2.5086935 -0.37618351
2.6835055 -2.4191244 -0.37942293
2.5928035 -2.3373582 -0.38248691
2.5107651 -2.2634025 -0.38601911
2.4316015 -2.1921151 -0.38901141
2.3496516 -2.1182363 -0.3903445
2.2763214 -2.0522003 -0.39238915
2.208817 -1.9913422 -0.39456818
2.1413667 -1.9305328 -0.39572877
2.0767744 -1.8723658 -0.39681956
2.0122545 -1.8141963 -0.39712477
1.9592716 -1.7664284 -0.39880168
1.9034026 -1.7161186 -0.39941829
1.8504666 -1.6683912 -0.39997581
1.8032844 -1.6259086 -0.40099874
1.7618629 -1.5885613 -0.40292802
1.7204667 -1.551237 -0.40435636
1.676237 -1.5114108 -0.40444094
1.632049 -1.4715679 -0.40414813
1.5993021 -1.442041 -0.4062168
1.5665717 -1.4125787 -0.40774742
1.531023 -1.3805244 -0.40827209
1.4926374 -1.3459593 -0.40759179
1.4571743 -1.3139811 -0.4071084
1.4245625 -1.2845739 -0.40714526
1.3919597 -1.255219 -0.40678966
9.8139505 -8.7463694 2.9136589
9.8237839 -8.7551336 2.8535805
9.8162966 -8.7484598 2.7885802
9.9677153 -8.9046555 -0.18293907
9.8474169 -8.7974958 -0.24106726
8.8941698 -7.9458838 -0.27223352
7.9466515 -7.0996375 -0.29121515
7.1565509 -6.3937521 -0.30613565
6.3548865 -5.6775351 -0.31081423
5.7919483 -5.1747808 -0.31828672
5.354311 -4.7837763 -0.32709599
4.9632926 -4.4344234 -0.33368054
4.6188326 -4.1268125 -0.33847445
4.3297563 -3.8685303 -0.34389859
4.0843506 -3.6492665 -0.34952033
3.8534908 -3.4431198 -0.35312378
3.6401708 -3.252517 -0.35598525
3.4675205 -3.0983615 -0.3604677
3.3269281 -2.9727368 -0.36605582
3.1631367 -2.8263831 -0.3675485
3.0341702 -2.7112417 -0.37130222
2.9140134 -2.6038733 -0.3743363
2.7967794 -2.4991164 -0.37657374
2.6998291 -2.4125695 -0.38023889
2.6029773 -2.3260226 -0.38248691
2.5206172 -2.2524257 -0.38601911
2.4324663 -2.1737304 -0.38762867
2.3559811 -2.1053805 -0.38986614
2.2823651 -2.0396667 -0.39189306
2.2174847 -1.9816854 -0.39456818
2.1497698 -1.9211709 -0.39572877
2.0849242 -1.8632865 -0.39681956
2.0172694 -1.8028235 -0.39655825
1.9640806 -1.755289 -0.39821777
1.9051167 -1.7026531 -0.39821523
1.8577287 -1.6603012 -0.39997581
1.8103616 -1.6180248 -0.40099874
1.7716489 -1.583425 -0.40358213
1.7243497 -1.541151 -0.40368468
1.6799489 -1.5015202 -0.40375194
1.6413188 -1.466993 -0.40485469
1.6027169 -1.4324911 -0.40549269
1.5727204 -1.4057299 -0.40774742
1.5341752 -1.3712773 -0.40751323
1.5042045 -1.3445362 -0.40914452
1.4685969 -1.3127084 -0.40869555
1.4358518 -1.2834389 -0.40876734
1.4031155 -1.2542216 -0.40844664
9.7948952 -8.6529999 2.8965251
9.8047094 -8.6616688 2.8367951
9.9030962 -8.7485867 2.8021262
9.9061737 -8.7725677 -0.24179731
8.9521418 -7.9277096 -0.27315533
7.989243 -7.0752482 -0.29182824
7.152225 -6.3339882 -0.30493239
6.3854394 -5.6549253 -0.31124786
5.8261557 -5.1598067 -0.31906232
5.3838925 -4.768126 -0.32775483
4.9942722 -4.4230676 -0.33457935
4.6397104 -4.1092019 -0.33879575
4.3582668 -3.8599389 -0.34492403
4.1031485 -3.633991 -0.34986475
3.8655555 -3.4236851 -0.35294759
3.6659892 -3.2469311 -0.35720715
3.4926636 -3.0935268 -0.36175674
3.334034 -2.9530253 -0.3654947
3.1812608 -2.8177109 -0.36829707
3.0488784 -2.700552 -0.37172827
2.9253423 -2.5911295 -0.37440452
2.8076522 -2.4868851 -0.37663922
2.7132332 -2.403338 -0.38071012
2.6160033 -2.3172133 -0.38297337
2.5304163 -2.2414014 -0.38607812
2.4390192 -2.1605194 -0.38722461
2.368042 -2.0976467 -0.39039969
2.2912378 -2.0296841 -0.39194649
2.2290039 -1.9745542 -0.39513391
2.1523333 -1.9066358 -0.39471659
2.0901344 -1.8516024 -0.39631945
2.0222182 -1.7914369 -0.39603889
1.9746066 -1.7492589 -0.3988477
1.9154116 -1.696879 -0.39886144
1.8678372 -1.6547325 -0.40063852
1.8145143 -1.6075499 -0.40040454
1.7785357 -1.575675 -0.40362361
1.7310526 -1.5336078 -0.40372503
1.6893573 -1.4967209 -0.40448034
1.6505743 -1.4623604 -0.40559971
1.6118199 -1.428025 -0.40625438
1.5788337 -1.3988495 -0.40778425
1.5372704 -1.3620243 -0.4067902
1.5100515 -1.3379554 -0.40917972
1.4800309 -1.3113561 -0.41031724
1.4471527 -1.282225 -0.41042319
1.4114264 -1.2506143 -0.40930805
9.7981281 -8.5800295 2.8863828
9.8079453 -8.5886259 2.8268619
9.9208755 -8.7086477 -0.24122636
8.9983864 -7.8988781 -0.27351215
8.0464487 -7.0635056 -0.29278928
7.2267404 -6.3439317 -0.30692622
6.4129868 -5.6295848 -0.31139031
5.8368816 -5.1240368 -0.31842229
5.4046464 -4.7445893 -0.32775483
5.0223198 -4.4089551 -0.33516631
4.6634583 -4.0940647 -0.33922219
4.3779979 -3.8434582 -0.34515506
4.1189656 -3.6160531 -0.34986475
3.8804574 -3.4067857 -0.35294759
3.6801217 -3.2309043 -0.35720715
3.5178349 -3.0885358 -0.3629646
3.3439615 -2.9358811 -0.36517522
3.2022984 -2.8115058 -0.36930886
3.063556 -2.6897895 -0.37208334
2.9424644 -2.5834718 -0.37514958
2.8213973 -2.4771752 -0.37702951
2.7236941 -2.3914764 -0.38071012
2.6231713 -2.3032148 -0.38254783
2.5372558 -2.2277784 -0.38563487
2.4484229 -2.1498566 -0.38722461
2.377172 -2.0872943 -0.39039969
2.3000722 -2.0196674 -0.39194649
2.2346885 -1.9622545 -0.39462009
2.1606319 -1.8972263 -0.39471659
2.0981936 -1.8424648 -0.39631945
2.0300155 -1.7825963 -0.39603889
1.9793181 -1.7380779 -0.39826375
1.9227973 -1.6885054 -0.39886144
1.8750395 -1.6465667 -0.40063852
1.8244072 -1.6021603 -0.40104112
1.7882876 -1.5704409 -0.40427777
1.7406191 -1.5285792 -0.40439677
1.6987609 -1.4918727 -0.4051694
1.6569394 -1.4551445 -0.40559971
1.6151512 -1.4184456 -0.40553021
1.5791589 -1.3868855 -0.40630141
1.5431987 -1.3553038 -0.4067902
1.5101222 -1.3263012 -0.40762687
1.4828649 -1.3023618 -0.40952358
1.4469917 -1.2708553 -0.40880096
1.4111335 -1.2394056 -0.40765092
9.973505 -8.6780901 -0.24204469
9.0533819 -7.8774781 -0.27455553
8.1036968 -7.0513916 -0.29412526
7.2985239 -6.3507748 -0.30913317
6.4492602 -5.6117921 -0.31225851
5.8591752 -5.0985122 -0.3186934
5.4252882 -4.7209544 -0.32800588
5.0473866 -4.3921137 -0.3357912
4.6842113 -4.0762305 -0.33965215
4.403542 -3.8319905 -0.3460519
4.1464581 -3.6082745 -0.35105199
3.8982158 -3.3923721 -0.35339436
3.7029912 -3.2224803 -0.35823104
3.5253925 -3.0680354 -0.36252379
3.3567302 -2.9212542 -0.36533055
3.2115901 -2.7949433 -0.36912021
3.0752535 -2.6763883 -0.37222564
2.9536989 -2.5705996 -0.37528628
2.8292372 -2.4622808 -0.37677014
2.7311623 -2.3770101 -0.38042846
2.6302569 -2.2891891 -0.38224402
2.5469418 -2.2166777 -0.38575271
2.4606957 -2.1416907 -0.38779947
2.3833222 -2.074348 -0.39003158
2.311775 -2.0121469 -0.3925496
2.2432187 -1.9524761 -0.39472389
2.1717982 -1.8903124 -0.39534837
2.1032853 -1.830744 -0.39586785
2.0377638 -1.7737126 -0.39613318
1.9868726 -1.7294159 -0.39835569
1.9330473 -1.6826245 -0.39955249
1.8851047 -1.6408927 -0.40134498
