# .PCD v0.7 - Point Cloud Data file format
VERSION 0.7
FIELDS x y z
SIZE 4 4 4
TYPE F F F
COUNT 1 1 1
WIDTH 1435
HEIGHT 1
VIEWPOINT 0 0 0 1 0 0 0
POINTS 1435
DATA ascii
3.1056008 -0.15112858 -0.41401505
3.0070801 -0.14633423 -0.41467649
2.9124503 -0.1417802 -0.4152081
2.825603 -0.13755241 -0.4160198
2.7426968 -0.13351648 -0.41644484
2.6675246 -0.1299037 -0.41751981
2.5924037 -0.12624544 -0.41791621
2.5173624 -0.12263511 -0.41746262
2.4500458 -0.11935573 -0.41782019
2.3750932 -0.11570437 -0.41622397
2.3117545 -0.11265922 -0.41586661
2.252279 -0.10976079 -0.41580909
2.200521 -0.10723845 -0.41666827
2.1564901 -0.10513042 -0.41840258
2.1086357 -0.10279748 -0.41913229
2.0569954 -0.10031596 -0.41865507
2.0092545 -0.097987719 -0.41837299
1.957714 -0.095474184 -0.41699046
1.9176648 -0.093554609 -0.41763636
5.8437443 -0.25831127 -0.40248412
5.5188131 -0.24394833 -0.40546608
5.1939797 -0.22968051 -0.40548554
4.896524 -0.21652687 -0.40446004
4.6263752 -0.20458074 -0.40345085
4.4146314 -0.19529453 -0.40533227
4.2301946 -0.1871354 -0.40761954
4.0535674 -0.17932178 -0.40931419
3.8770139 -0.1715792 -0.40940249
3.7122157 -0.16428597 -0.4089146
3.5707381 -0.1580248 -0.40986302
3.4525793 -0.15285601 -0.412303
3.334506 -0.14762855 -0.41344377
3.2164643 -0.14245874 -0.41374907
3.1062307 -0.13757643 -0.41401505
3.003824 -0.1330408 -0.41414347
2.9091778 -0.12889974 -0.41465741
2.8223155 -0.12505105 -0.41545147
2.7432532 -0.12154797 -0.41644484
2.668066 -0.11826323 -0.41751981
2.5929298 -0.11493278 -0.41791621
2.5178735 -0.11164992 -0.41746262
2.4505432 -0.10866429 -0.41782019
2.3755755 -0.10534 -0.41622397
2.3160651 -0.10274163 -0.41655743
2.2565742 -0.1001026 -0.41651747
2.2048023 -0.097805969 -0.41739416
2.1530972 -0.095549963 -0.4176594
2.1014087 -0.093256138 -0.41761094
2.0535891 -0.091169916 -0.4178769
2.0058422 -0.089050166 -0.41757759
1.9581119 -0.086931162 -0.41699046
1.9180548 -0.085186355 -0.41763636
5.8526039 -0.23312095 -0.40302041
5.5276103 -0.22017582 -0.40603796
5.2104979 -0.20763566 -0.40670046
4.9207616 -0.19608982 -0.40638757
4.6466656 -0.18516724 -0.405146
4.4193287 -0.17618524 -0.40568906
4.2387409 -0.16898575 -0.40836814
4.062078 -0.16194274 -0.41009831
3.885489 -0.15497059 -0.41022211
3.7206566 -0.14839634 -0.40976918
3.5830269 -0.14290705 -0.41119808
3.4570892 -0.13794452 -0.41276574
3.3428655 -0.13338679 -0.41440415
3.2209265 -0.12857749 -0.41424698
3.1145394 -0.12433057 -0.41504624
3.0082426 -0.12008727 -0.41467649
2.9174407 -0.11651351 -0.41575876
2.8228343 -0.11273523 -0.41545147
2.7437575 -0.10957714 -0.41644484
2.6724129 -0.10677458 -0.41812319
2.6011136 -0.10392586 -0.41915816
2.5298889 -0.10112435 -0.41937757
2.4625371 -0.098432176 -0.41978794
2.3875465 -0.095434666 -0.41824448
2.3241744 -0.092942193 -0.41793904
2.2646663 -0.090562508 -0.41793418
2.2128785 -0.088491537 -0.41884598
2.1611574 -0.08646103 -0.41914573
2.1132808 -0.084545642 -0.41989297
2.0616174 -0.082514785 -0.41943324
2.0176756 -0.080756053 -0.41996375
1.9699256 -0.07884489 -0.419429
1.933664 -0.077427343 -0.42095751
5.8691506 -0.20813471 -0.40399048
5.5440989 -0.19660756 -0.40708491
5.2191448 -0.18517509 -0.40721679
4.933249 -0.17503151 -0.40726519
4.6513257 -0.16502887 -0.40540382
4.4161749 -0.15676291 -0.40525514
4.243331 -0.1506274 -0.40866834
4.0666375 -0.14435522 -0.41041934
3.8938997 -0.13829152 -0.41097376
3.7367973 -0.13271205 -0.41141304
3.5913804 -0.12754758 -0.41202539
3.4692941 -0.12327232 -0.41409338
3.3472972 -0.11893748 -0.41482589
3.229208 -0.11479792 -0.41518638
3.1227987 -0.11101508 -0.41602287
3.0126123 -0.10709798 -0.41515687
2.9140637 -0.10364551 -0.4151572
2.8194442 -0.10028014 -0.41483387
2.7442167 -0.097604498 -0.41639692
2.6690037 -0.094976008 -0.4174732
2.6015496 -0.092575669 -0.41911271
2.5303133 -0.090084955 -0.4193334
2.4667988 -0.087823696 -0.42040077
2.3917928 -0.085153311 -0.4188762
2.3245652 -0.082800478 -0.41789845
2.2650473 -0.08068046 -0.41789463
2.2170866 -0.078972109 -0.41953316
2.1576889 -0.07689409 -0.41836488
2.113637 -0.0753242 -0.41985607
2.0657904 -0.073655181 -0.42017531
2.0294821 -0.07236062 -0.42231447
1.9817132 -0.070657432 -0.42183295
1.9416199 -0.069261841 -0.42258418
5.8777933 -0.18276604 -0.40452665
5.5487981 -0.17253615 -0.40737078
5.2354736 -0.16288501 -0.40843147
4.9378572 -0.15362562 -0.40758637
4.6481118 -0.14461112 -0.40506485
4.4207048 -0.13761331 -0.40561187
4.2556071 -0.13247395 -0.40979105
4.0711131 -0.12673078 -0.41081133
3.8983488 -0.12142086 -0.41138348
3.7451026 -0.11664774 -0.41226751
3.5996604 -0.11211769 -0.41291529
3.473676 -0.10825437 -0.41455606
3.3516591 -0.10445181 -0.415306
3.2335505 -0.10082754 -0.41568419
3.1271236 -0.097508967 -0.41653839
3.013051 -0.093951993 -0.41515687
2.922219 -0.091170751 -0.41625842
2.8275805 -0.088218108 -0.41597041
2.7484767 -0.08575014 -0.41698256
2.6693926 -0.083329417 -0.4174732
2.6019287 -0.081223421 -0.41911271
2.5306823 -0.07904356 -0.4193334
2.4671586 -0.077059455 -0.42040077
2.3882957 -0.074596249 -0.41820279
2.3249044 -0.072656892 -0.41789845
2.261538 -0.070676595 -0.41718632
2.2174101 -0.069297522 -0.41953316
2.1618369 -0.067598544 -0.419108
2.1177752 -0.066220775 -0.42061666
2.0699184 -0.064760506 -0.42095342
2.0259559 -0.063385077 -0.42151916
1.9781837 -0.061890449 -0.42102015
1.9380884 -0.060669869 -0.42175397
5.8746462 -0.15701374 -0.404156
5.5456109 -0.1482195 -0.40698808
5.2244625 -0.13972729 -0.40742925
4.9268126 -0.13176671 -0.40653679
4.6409254 -0.1241207 -0.40430588
4.4212704 -0.11832329 -0.40553468
4.2483778 -0.1136963 -0.40896842
4.0677495 -0.10886227 -0.41034833
3.8949654 -0.1043062 -0.41090575
3.7455833 -0.10030578 -0.41220209
3.604002 -0.09651427 -0.41329733
3.4741225 -0.093096808 -0.41449541
3.3520901 -0.089826681 -0.4152475
3.2378399 -0.086821653 -0.41612548
3.1236558 -0.083759837 -0.41596833
3.0095713 -0.080700696 -0.41457137
2.9148645 -0.078212075 -0.4151063
2.8279457 -0.075879857 -0.41592103
2.748832 -0.07375706 -0.41693455
2.6658802 -0.071577847 -0.41682339
2.5984104 -0.069766313 -0.41844645
2.527158 -0.067897357 -0.41865101
2.4636292 -0.066190518 -0.4197019
2.3847594 -0.064071521 -0.41748771
2.3213632 -0.062408794 -0.41716719
2.2618322 -0.060808331 -0.41714683
2.2138617 -0.059518665 -0.41876867
2.1582851 -0.058062207 -0.41832721
2.1142211 -0.056876801 -0.41981915
2.0663619 -0.055625383 -0.42013925
2.0223975 -0.054441884 -0.42068851
1.9708035 -0.053052999 -0.41936019
1.9307108 -0.052007448 -0.4200598
5.8713794 -0.13129222 -0.40388799
5.5462046 -0.12402087 -0.40698808
5.2250223 -0.11693002 -0.40742925
4.9195566 -0.11009404 -0.40589455
4.6375322 -0.10378266 -0.40396699
4.4256334 -0.09911789 -0.40589136
4.2449465 -0.095071167 -0.40859425
4.0681858 -0.091112383 -0.41034833
3.8914998 -0.087223217 -0.41049606
3.7382216 -0.083787672 -0.41134781
3.6005089 -0.080701016 -0.41285244
3.4744956 -0.077937253 -0.41449541
3.3524501 -0.075199619 -0.4152475
3.2304411 -0.07251922 -0.41512996
3.1201205 -0.070042662 -0.41545287
3.0098946 -0.067568235 -0.41457137
2.9151781 -0.065492876 -0.4151063
2.8282499 -0.06353993 -0.41592103
2.7491276 -0.061762359 -0.41693455
2.6700253 -0.060031861 -0.41742659
2.59869 -0.058427982 -0.41844645
2.5235775 -0.056783244 -0.41801283
2.4600449 -0.05535369 -0.41904613
2.3850162 -0.053665467 -0.41748771
2.3216133 -0.052279372 -0.41716719
2.269757 -0.051111646 -0.41856328
2.2179377 -0.049944744 -0.41949445
2.1623518 -0.048730791 -0.41907024
2.1144493 -0.047651257 -0.41981915
2.0589309 -0.046436053 -0.41858318
2.0111456 -0.045358323 -0.41830277
1.9595568 -0.044194821 -0.41692203
1.9347354 -0.043668795 -0.42088997
5.8757997 -0.10574258 -0.40405342
5.5505953 -0.099890105 -0.407177
5.2254901 -0.09413065 -0.40733802
4.931674 -0.088837929 -0.40677181
4.637948 -0.083546817 -0.40388602
4.4221416 -0.079736538 -0.4054575
4.2414403 -0.07647828 -0.40814602
4.0685515 -0.07336089 -0.41027731
3.8957345 -0.070312805 -0.41083774
3.7346766 -0.067405924 -0.41085544
3.5969539 -0.064920209 -0.41234475
3.4670534 -0.062636212 -0.41350967
3.3411255 -0.060361184 -0.41374901
3.2268603 -0.058353193 -0.41457587
3.1165321 -0.056358065 -0.41488302
3.006299 -0.054364655 -0.41398606
2.9115767 -0.052702568 -0.41450495
2.8246434 -0.051128987 -0.41530353
2.7532396 -0.049836505 -0.41747209
2.6779869 -0.048521105 -0.41858628
2.6027837 -0.047158536 -0.41902184
2.535368 -0.045981329 -0.41988313
2.4641204 -0.044689186 -0.4196589
2.3890822 -0.043328296 -0.41811937
2.3218267 -0.042149089 -0.41712666
2.2699659 -0.041207638 -0.41852367
2.2219794 -0.040336519 -0.42018142
2.1663854 -0.039365124 -0.41977546
2.1146443 -0.038424943 -0.41978222
2.0591214 -0.03745199 -0.41854724
2.0151553 -0.036652323 -0.41906282
1.9711988 -0.035852827 -0.41932577
1.9387313 -0.035296146 -0.42168629
5.8839984 -0.080209881 -0.40458933
5.5626645 -0.075829498 -0.40803421
5.2375331 -0.071488775 -0.40824863
4.9436932 -0.067478061 -0.40773496
4.6421595 -0.06336233 -0.40422487
4.4263368 -0.060493767 -0.40581408
4.2378454 -0.057917699 -0.40777194
4.0649467 -0.055554729 -0.40988544
3.9076574 -0.053473301 -0.41206655
3.7465825 -0.051269118 -0.4121367
3.5972028 -0.049224973 -0.41234475
3.4672937 -0.047507793 -0.41350967
3.3413572 -0.045782246 -0.41374901
3.2270842 -0.044272847 -0.41457587
3.12062 -0.042812251 -0.41539842
3.0103769 -0.041299809 -0.41451883
2.9156458 -0.040051077 -0.41505542
2.8287039 -0.038856789 -0.41587165
2.7611544 -0.037928887 -0.41864312
2.6858912 -0.036941912 -0.41979259
2.6068208 -0.035854373 -0.41964263
2.5316908 -0.034865227 -0.419245
2.4604414 -0.033884015 -0.41900319
2.385401 -0.032850593 -0.41744608
2.3258328 -0.032070849 -0.41781726
2.270124 -0.031302683 -0.41852367
2.2221341 -0.030640952 -0.42018142
2.1703711 -0.02996508 -0.42051843
2.1147919 -0.029197728 -0.41978222
2.0592651 -0.02846705 -0.41854724
2.0152962 -0.027859228 -0.41906282
1.9713365 -0.027251534 -0.41932577
1.9350501 -0.026783697 -0.42085618
5.8998871 -0.054679938 -0.40555808
5.5629497 -0.051557213 -0.40793711
5.2416968 -0.048671346 -0.40846068
4.9478402 -0.045942768 -0.40796965
4.6462903 -0.043142747 -0.4044826
4.4304557 -0.041215967 -0.40609336
4.2458415 -0.039498523 -0.40844604
4.076817 -0.037926111 -0.41098985
3.9156296 -0.036494955 -0.41281745
3.7506604 -0.034957387 -0.41249833
3.5973907 -0.033528861 -0.41228199
3.4635966 -0.032342315 -0.41298667
3.3415322 -0.031202503 -0.41369069
3.2272539 -0.030191727 -0.41451955
3.1207845 -0.029195681 -0.41534394
3.0105357 -0.028164277 -0.41446629
2.9158001 -0.027328897 -0.41500452
2.8288538 -0.026513977 -0.4158223
2.7574389 -0.025844628 -0.41800946
2.6821749 -0.025186017 -0.41914263
2.6069598 -0.024479738 -0.41959712
2.5318263 -0.023818415 -0.41920081
2.4605732 -0.023148093 -0.41896024
2.3816814 -0.022405911 -0.41673121
2.3182688 -0.021849817 -0.41639557
2.2664049 -0.021360995 -0.41777596
2.218416 -0.020908697 -0.41941699
2.1666539 -0.020458654 -0.41973764
2.1110752 -0.019933851 -0.41898492
2.0632048 -0.01951785 -0.4192892
2.0192301 -0.019101849 -0.41982278
1.9752645 -0.018685937 -0.42010394
1.9313391 -0.018304115 -0.41999239
5.9117603 -0.028993724 -0.4063617
5.5670171 -0.02730296 -0.40822276
5.2496481 -0.025838075 -0.4090676
4.9479938 -0.024353372 -0.40796965
4.6542172 -0.022907443 -0.40516013
4.4383731 -0.021922553 -0.40680644
4.2537498 -0.021010639 -0.40919411
4.0769434 -0.020137336 -0.41098985
3.9079823 -0.019370992 -0.41199836
3.7468944 -0.018572515 -0.41207132
3.6013834 -0.01785125 -0.41272673
3.4637048 -0.017229263 -0.41298667
3.3455133 -0.01664135 -0.41417059
3.2234805 -0.016090594 -0.41402194
3.1208823 -0.015578454 -0.41534394
3.0106299 -0.015028111 -0.41446629
2.9197588 -0.014625471 -0.41555491
2.8289425 -0.014170561 -0.4158223
2.7498014 -0.013774131 -0.41683859
2.6745405 -0.01344382 -0.41793644
2.6031852 -0.013085146 -0.41897643
2.5319061 -0.012771047 -0.41920081
2.4606507 -0.012411632 -0.41896024
2.3856041 -0.012033093 -0.41740444
2.3221867 -0.011753744 -0.41708612
2.262635 -0.011452323 -0.41706786
2.2108097 -0.011190009 -0.41796574
2.1667225 -0.011004679 -0.41973764
2.1111419 -0.010722389 -0.41898492
2.0594425 -0.010495754 -0.4185113
2.0154698 -0.010271652 -0.41902766
1.9676858 -0.010028125 -0.41847879
1.9275836 -0.009857391 -0.41916236
5.9157348 -0.003200721 -0.40652633
5.5709863 -0.0030141941 -0.4084112
5.2458234 -0.0029298207 -0.40867257
4.932488 -0.0027548212 -0.40659964
4.6503882 -0.002597267 -0.40474018
4.4578834 -0.0025675567 -0.40851131
4.2576962 -0.0024522573 -0.40949383
4.073113 -0.002345945 -0.41052699
3.9041522 -0.0023167708 -0.41152066
3.7430642 -0.0022211792 -0.41157895
3.5975535 -0.0021348314 -0.4122192
3.4637542 -0.0021158874 -0.41292623
3.3455613 -0.0020436873 -0.41411221
3.2235272 -0.0020254022 -0.41396567
3.1170557 -0.0019585041 -0.41477421
3.010674 -0.0018916626 -0.41441375
2.9198022 -0.0018855261 -0.41550398
2.82512 -0.0018243832 -0.41520491
2.7459805 -0.0017732771 -0.4162052
2.666862 -0.0017687302 -0.41668373
2.5993683 -0.0017239666 -0.41831034
2.531945 -0.0017234406 -0.41915664
2.4606888 -0.001674938 -0.4189173
2.3856413 -0.0016238547 -0.41736281
2.3183784 -0.0016185337 -0.4163551
2.2665124 -0.0015823244 -0.41773638
2.2108448 -0.0015434611 -0.41792715
2.1629221 -0.001547755 -0.418957
2.111176 -0.0015107261 -0.41894805
2.0594759 -0.0015096749 -0.41847536
2.0116782 -0.0014746374 -0.41819742
1.9638972 -0.0014396121 -0.41763192
1.9199815 -0.0014409302 -0.41746882
5.9117956 0.022596596 -0.40625852
5.5709467 0.021293771 -0.4084112
5.2457862 0.019959357 -0.40867257
4.9246669 0.018737551 -0.40595782
4.6503553 0.01769384 -0.40474018
4.4578519 0.016883591 -0.40851131
4.2576666 0.016125413 -0.40949383
4.0769711 0.01544105 -0.41091871
3.904125 0.014718275 -0.41152066
3.7430382 0.014110989 -0.41157895
3.5975285 0.013562427 -0.4122192
3.4676092 0.013012119 -0.41338861
3.3455384 0.01255405 -0.41411221
3.2235055 0.012039864 -0.41396567
3.1092901 0.011613267 -0.41374373
3.0029142 0.01121595 -0.41334841
2.9159153 0.010840114 -0.41495362
2.8251011 0.010502507 -0.41520491
2.7459619 0.010208301 -0.4162052
2.6668444 0.0098676309 -0.41668373
2.5993509 0.0096178977 -0.41831034
2.5319285 0.0093242349 -0.41915664
2.4606726 0.0090618245 -0.4189173
2.3894734 0.0087996218 -0.41803595
2.3222082 0.0085113756 -0.41704559
2.2626562 0.0082931053 -0.41702837
2.2108305 0.0081031527 -0.41792715
2.1667433 0.0079037473 -0.41969982
2.1111624 0.0077010021 -0.41894805
2.0594628 0.00747647 -0.41847536
2.0040166 0.0072751832 -0.41660732
1.9562433 0.0071017514 -0.41600689
1.9085183 0.0068951854 -0.41497892
5.9116478 0.048391432 -0.40615535
5.5708075 0.04560139 -0.40831399
5.2378678 0.042784594 -0.40797436
4.9206524 0.040193476 -0.40555102
4.642458 0.037921093 -0.40398178
4.4538531 0.036302771 -0.40807709
4.2536745 0.034671139 -0.40904561
4.0690994 0.033166692 -0.41006425
3.9001462 0.031721503 -0.41104314
3.7390654 0.030411366 -0.41108674
3.5974424 0.029259486 -0.4121564
3.4714053 0.028173784 -0.41379043
3.3493354 0.027183071 -0.41453359
3.2273037 0.026136335 -0.4144069
3.1092172 0.02518001 -0.41368946
2.9989743 0.024287207 -0.41276342
2.9119802 0.02353186 -0.41435248
2.821171 0.022798026 -0.41458768
2.7458985 0.022189744 -0.41615728
2.6667833 0.021503862 -0.41663721
2.6031482 0.020990735 -0.41888553
2.5280173 0.020340785 -0.41847453
2.4606171 0.019798473 -0.41887432
2.3817241 0.019163691 -0.41664806
2.3183117 0.018612998 -0.41631466
2.2587643 0.018134912 -0.4162809
2.2107813 0.017749671 -0.41788855
2.1628606 0.01732718 -0.41891924
2.1072845 0.016881946 -0.41815093
2.0517621 0.016401332 -0.41688386
2.003973 0.016019316 -0.41657236
1.9600216 0.015667979 -0.41678521
1.9084773 0.015222633 -0.41494563
5.9113803 0.074185319 -0.40615535
5.5705557 0.069908112 -0.40831399
5.2415252 0.065687425 -0.40827769
4.9243226 0.061712205 -0.40587187
4.6461396 0.058225978 -0.40432039
4.4536524 0.055735964 -0.40807709
4.2612591 0.053328224 -0.40979341
4.0611434 0.050823845 -0.40928093
3.8960862 0.0486902 -0.41063371
3.7427797 0.046774298 -0.41151363
3.5972803 0.044955961 -0.4121564
3.4712493 0.043320332 -0.41379043
3.3414323 0.041700244 -0.41357404
3.223285 0.04016953 -0.41390941
3.1090777 0.038746245 -0.41368946
3.0027092 0.037420653 -0.41329601
2.9157169 0.036285631 -0.41490275
2.8210447 0.035107449 -0.41458768
2.7496374 0.034218799 -0.41674259
2.6666641 0.033139657 -0.41663721
2.6030316 0.032348875 -0.41888553
2.524051 0.031323291 -0.41783661
2.4566567 0.030486932 -0.41821882
2.3816178 0.029555706 -0.41664806
2.3182082 0.028728332 -0.41631466
2.2625048 0.028038029 -0.41698888
2.2183588 0.027490949 -0.41933957
2.166599 0.026811698 -0.419662
2.1071908 0.026076522 -0.41815093
2.051671 0.025353648 -0.41688386
2.0038841 0.024763118 -0.41657236
1.9599346 0.02422001 -0.41678521
1.9236599 0.023738163 -0.41826519
5.9188004 0.10010972 -0.40658751
5.5702047 0.094213627 -0.40821674
5.2450895 0.088623106 -0.40848947
4.9240136 0.083198078 -0.40578592
4.6497393 0.078563832 -0.40457785
4.4650421 0.075365163 -0.40906835
4.272656 0.072117887 -0.41084054
4.0764341 0.068805873 -0.41077641
3.9036124 0.065820672 -0.4113844
3.7464294 0.063170344 -0.41187513
3.6009374 0.060717128 -0.41253814
3.4671564 0.058400851 -0.41326758
3.3451018 0.056344964 -0.41399541
3.230834 0.054363828 -0.41484797
3.120501 0.052507304 -0.41518053
3.010263 0.050652377 -0.41430867
2.9194047 0.049072579 -0.41540205
2.8247361 0.047481284 -0.4151063
2.7494693 0.046216115 -0.41669458
2.6665013 0.044774946 -0.41659066
2.6028731 0.043706521 -0.41884011
2.5238976 0.04233633 -0.41779253
2.4565077 0.041205917 -0.41817594
2.3776262 0.039882746 -0.41593346
2.314224 0.038778823 -0.41558385
2.2623682 0.037909891 -0.41694939
2.2143874 0.037105888 -0.41857541
2.1664689 0.036265109 -0.41962418
2.1070642 0.035270721 -0.41811416
2.0515482 0.034305602 -0.41684806
2.0114121 0.033634458 -0.41812721
1.9674581 0.032899465 -0.41837576
1.9311785 0.032259088 -0.41989127
5.9222035 0.12601723 -0.40685517
5.5697408 0.11851725 -0.40821674
5.2485466 0.111591 -0.4087927
4.9352803 0.10493054 -0.40674824
4.6571336 0.099016778 -0.40525499
4.4685602 0.094929427 -0.40942469
4.2723007 0.090760127 -0.41084054
4.0916381 0.086922146 -0.41234276
3.9149396 0.083100036 -0.41261241
3.7577641 0.07976377 -0.41315556
3.6083982 0.076593272 -0.41342723
3.4707465 0.073610812 -0.41372985
3.3448241 0.070940137 -0.41399541
3.230566 0.068460435 -0.41484797
3.1241136 0.066204555 -0.41569564
3.0177512 0.063950576 -0.41537371
2.9230294 0.061892245 -0.41595224
2.8322299 0.059969656 -0.41624203
2.7531028 0.058294218 -0.41727984
2.6739976 0.056572556 -0.4177964
2.6026576 0.055063248 -0.41884011
2.5236888 0.053348474 -0.41779253
2.4486043 0.051761258 -0.41686505
2.3774295 0.050256684 -0.41593346
2.3217206 0.049038507 -0.41696453
2.2698629 0.04794319 -0.41836518
2.2180417 0.046848644 -0.41930082
2.16629 0.045717739 -0.41962418
2.1107211 0.044545002 -0.41887438
2.0552061 0.04333752 -0.41762576
2.0112462 0.042410553 -0.41812721
1.9672959 0.041483782 -0.41837576
1.9310193 0.04068511 -0.41989127
5.9332919 0.15215634 -0.4075546
5.5613885 0.14261906 -0.40754873
5.2558036 0.13469069 -0.40930748
4.9347825 0.12646388 -0.40666208
4.6644449 0.11953592 -0.40585065
4.4642215 0.11432683 -0.40899041
4.2718711 0.10940082 -0.41076595
4.0912271 0.10477459 -0.41227132
3.914547 0.10018152 -0.41254407
3.7535059 0.096060142 -0.41266322
3.6041572 0.092237994 -0.41291976
3.4665217 0.088655077 -0.41320705
3.3406146 0.08543504 -0.41345739
3.2302437 0.082555927 -0.41479158
3.1238022 0.079835579 -0.4156411
3.0174506 0.07711754 -0.41532105
2.9227388 0.074645922 -0.41590121
2.8319485 0.072327167 -0.41619259
2.7489686 0.070207879 -0.4166466
2.6698744 0.068141215 -0.41714692
2.5985446 0.06632071 -0.41817424
2.527292 0.064458042 -0.41838628
2.4522121 0.062543154 -0.41747767
2.3810415 0.060727961 -0.41656491
2.3214917 0.059168611 -0.416924
2.265799 0.057749152 -0.41761771
2.2101495 0.056330793 -0.41781139
2.1660771 0.055169683 -0.41958636
2.1105139 0.053754494 -0.41883752
2.0550048 0.052304793 -0.41758987
2.0072262 0.051088709 -0.41729724
1.9632839 0.049970277 -0.41752911
1.9308307 0.049110543 -0.41985753
5.9364667 0.17816058 -0.40782219
5.5685015 0.16711749 -0.40811953
5.2551656 0.1576221 -0.40930748
4.945858 0.1483448 -0.40762421
4.6560993 0.13965386 -0.40517369
4.455904 0.13357142 -0.4082779
4.2713532 0.12803927 -0.41076595
4.0829611 0.12239198 -0.41148826
3.9140725 0.11726095 -0.41254407
3.7608135 0.11266949 -0.4135167
3.6114788 0.1081956 -0.41380873
3.469979 0.10389582 -0.41366926
3.34021 0.10001036 -0.41345739
3.22598 0.096533813 -0.41429424
3.1195536 0.093349122 -0.41512606
3.0170856 0.090282872 -0.41532105
2.9185195 0.087282419 -0.41535109
2.8277428 0.084567614 -0.4156248
2.7409151 0.081970908 -0.41547623
2.665694 0.079674751 -0.41654411
2.5982304 0.077658333 -0.41817424
2.5269866 0.07548479 -0.41838628
2.455765 0.073357299 -0.41813305
2.3807538 0.071116604 -0.41656491
2.3212116 0.069297433 -0.416924
2.2655253 0.067634985 -0.41761771
2.2137191 0.066088364 -0.41853675
2.1619825 0.064506046 -0.41884375
2.1064293 0.062848538 -0.41807738
2.0509307 0.061156817 -0.41681224
2.0031612 0.059732381 -0.41650239
1.9592279 0.058422331 -0.41671678
1.9344134 0.057648592 -0.42068732
5.9434295 0.20432957 -0.40825358
5.5677261 0.19141324 -0.40802228
5.258327 0.18068451 -0.40951884
4.9451704 0.16992395 -0.40753788
4.6671205 0.16036969 -0.40610763
4.4591737 0.15314639 -0.40855628
4.262989 0.1464086 -0.40994397
4.0785112 0.14007287 -0.41102552
3.9096484 0.13420512 -0.41206652
3.7564125 0.12894505 -0.41302437
3.607101 0.12381968 -0.41330126
3.4695001 0.11903567 -0.41360867
3.3358746 0.1144511 -0.41291946
3.2255354 0.11060908 -0.41423792
3.1191239 0.10696006 -0.41507158
3.01667 0.10344674 -0.41526836
2.9219832 0.10014871 -0.41585019
2.8273542 0.096905373 -0.41557541
2.7405386 0.093929835 -0.41542837
2.6614711 0.091173351 -0.41589481
2.5940197 0.088862687 -0.41750851
2.5304921 0.086642221 -0.41897985
2.4631262 0.084335662 -0.41940081
2.3881195 0.081767485 -0.41786915
2.3208942 0.079425186 -0.41688347
2.2652161 0.077519774 -0.41757816
2.2095809 0.075615846 -0.4177728
2.157855 0.073807985 -0.41806343
2.102313 0.071908213 -0.41728052
2.0468256 0.069974534 -0.41599888
1.9990665 0.068341799 -0.41567263
1.9627804 0.067101285 -0.41749483
1.9417806 0.066349447 -0.42231292
5.9424815 0.23026064 -0.40825358
5.5863028 0.21645935 -0.40944895
5.2574887 0.20362648 -0.40951884
4.9482722 0.1916503 -0.40785852
4.6663766 0.18073227 -0.40610763
4.4623499 0.17275217 -0.40891248
4.2661948 0.16515836 -0.41031766
4.0817447 0.15801769 -0.41141698
3.9090254 0.15126283 -0.41206652
3.7558143 0.14533421 -0.41302437
3.6104043 0.13970746 -0.41374567
3.4728234 0.13432296 -0.41407079
3.343091 0.12930512 -0.41387865
3.2250221 0.12468204 -0.41423792
3.1147583 0.12041915 -0.41455659
3.0123231 0.11645892 -0.41473597
2.9215186 0.11289728 -0.41585019
2.8307664 0.10939031 -0.41614315
2.743962 0.1060359 -0.41601348
2.6649046 0.10293427 -0.41649756
2.6013148 0.10047806 -0.41874924
2.5339408 0.097831391 -0.41961759
2.4665828 0.095230803 -0.42005613
2.3877399 0.092186809 -0.41786915
2.3205256 0.08955121 -0.41688347
2.2648563 0.08740288 -0.41757816
2.2169011 0.085552238 -0.4192234
2.1613445 0.083370492 -0.41880599
2.105808 0.081228256 -0.4180406
2.0541513 0.079199776 -0.41755399
2.0063927 0.077358395 -0.4172622
1.9624689 0.075664863 -0.41749483
1.9376583 0.074674405 -0.42148322
5.9570012 0.25685918 -0.40921965
5.5775275 0.24049671 -0.40878084
5.272121 0.22723572 -0.41063923
4.9551749 0.21357492 -0.40841323
4.6772141 0.20159443 -0.40704122
4.4771061 0.1928912 -0.41025904
4.2732105 0.18410657 -0.41099042
4.0810237 0.17582642 -0.41134569
3.9044542 0.16815086 -0.41158912
3.7473929 0.16138677 -0.41210553
3.6020131 0.15512578 -0.41279393
3.4722116 0.14947499 -0.41401014
3.3502486 0.14422461 -0.41477928
3.2360673 0.13925265 -0.41567323
3.1258161 0.13450839 -0.41604692
3.019526 0.12993456 -0.415748
2.9325967 0.12614259 -0.41744915
2.8379917 0.12207326 -0.417229
2.7511978 0.1183399 -0.41713566
2.6721492 0.11489299 -0.41765636
2.604712 0.11199343 -0.4193241
2.5373476 0.10905263 -0.42021096
2.4699984 0.10615803 -0.42066827
2.3950107 0.10293514 -0.41917309
2.3278027 0.10000589 -0.4182232
2.2721367 0.097614408 -0.41895398
2.2203486 0.095389515 -0.41990989
2.1647992 0.092965171 -0.41951072
2.1092689 0.090580478 -0.41876382
2.0576181 0.088326402 -0.41829562
2.0098643 0.086276501 -0.41802189
1.969762 0.084555052 -0.41908491
1.9449487 0.08345589 -0.42310864
5.9558234 0.28284895 -0.40921965
5.5803165 0.26501569 -0.40906611
5.2827492 0.25079149 -0.41154838
4.9580846 0.23537844 -0.40873381
4.6685157 0.22163156 -0.4063645
4.4801078 0.21260875 -0.41061518
4.284018 0.20330311 -0.41211128
4.0840998 0.19381574 -0.41173708
3.9075639 0.18536967 -0.41199824
3.7466531 0.17773628 -0.41210553
3.6013019 0.17084101 -0.41279393
3.4715261 0.1646239 -0.41401014
3.3534596 0.15902504 -0.4152588
3.2354288 0.15337127 -0.41567323
3.1290672 0.14832935 -0.41656184
3.0227957 0.14329168 -0.41628033
2.9320183 0.13893721 -0.41744915
2.8374321 0.13445513 -0.417229
2.754513 0.13052592 -0.41772071
2.6793327 0.12691653 -0.41886172
2.6080511 0.12354001 -0.41994441
2.5329981 0.11994054 -0.41957331
2.4695117 0.11693439 -0.42066827
2.3983824 0.11356633 -0.41984594
2.3350251 0.11052544 -0.41960347
2.2755265 0.10770915 -0.41966167
2.2314134 0.10562111 -0.42208561
2.1720343 0.10277248 -0.42099574
2.1165082 0.1001452 -0.42028385
2.0572131 0.097303592 -0.41829562
2.013289 0.095226035 -0.4188166
1.9693743 0.093148924 -0.41908491
1.9369402 0.09158095 -0.42144936
5.9623237 0.30923745 -0.40965039
5.5791144 0.28936219 -0.4089686
5.2816119 0.27383974 -0.41145608
4.9570174 0.25701022 -0.40864718
4.6791706 0.24260449 -0.40729779
4.4791446 0.2321552 -0.41053689
4.2869806 0.22219531 -0.41240999
4.0909853 0.2120368 -0.41244835
3.9144843 0.20282021 -0.4127481
3.7536044 0.19448459 -0.41289315
3.6082807 0.18695498 -0.41361955
3.4746559 0.17997068 -0.41441149
3.3566127 0.17385662 -0.41567963
3.2424746 0.16788806 -0.41661099
3.1322646 0.16218163 -0.41702202
3.0260136 0.1566802 -0.41675976
2.9313915 0.15172957 -0.41739792
2.8368256 0.14683482 -0.41717944
2.7577815 0.14274348 -0.41825753
2.6787608 0.13860646 -0.41881493
2.6074944 0.13491894 -0.41989884
2.528609 0.13079296 -0.41889149
2.4651396 0.12750997 -0.41996995
2.3978715 0.12403051 -0.41980401
2.3422072 0.12111028 -0.42094281
2.2788787 0.1178357 -0.42032954
2.2271054 0.11515862 -0.42132145
2.1715727 0.11224914 -0.42095777
2.119885 0.1095774 -0.4210068
2.0644221 0.10667439 -0.41981456
2.0205007 0.10440484 -0.42037073
1.9727722 0.10193858 -0.4198626
1.9289054 0.099638104 -0.41975641
5.9609175 0.33524996 -0.40965039
5.5894675 0.31435913 -0.40982419
5.2648134 0.29600796 -0.41024414
4.951962 0.27841824 -0.40832666
4.6897235 0.2636742 -0.40831265
4.4819727 0.25191519 -0.41089296
4.2859702 0.24089861 -0.41240999
4.0939016 0.23010314 -0.41283968
3.9174407 0.22011632 -0.41315717
3.7527201 0.21086088 -0.41289315
3.6074307 0.20269723 -0.41361955
3.4699647 0.19491243 -0.41394949
3.3519514 0.18828347 -0.4152002
3.2339745 0.18159993 -0.41561669
3.127661 0.17563003 -0.41650715
3.0253012 0.16988213 -0.41675976
2.9307015 0.16451868 -0.41739792
2.836158 0.15921137 -0.41717944
2.7532763 0.1545587 -0.41767257
2.6742771 0.15007715 -0.41821229
2.6030302 0.14607887 -0.41927859
2.5280144 0.14182481 -0.41889149
2.4684045 0.13848063 -0.42062515
2.3973074 0.13449198 -0.41980401
2.3378177 0.1311136 -0.42025274
2.2706716 0.1273478 -0.41891429
2.2227495 0.12466015 -0.42059627
2.1710622 0.12172332 -0.42095777
2.1193867 0.11882607 -0.4210068
2.0639372 0.11568108 -0.41981456
2.020026 0.11321991 -0.42037073
1.9723086 0.11054543 -0.4198626
1.92083 0.10762648 -0.41809729
5.9594121 0.36125696 -0.40944198
5.5919456 0.3389813 -0.40991381
5.2595987 0.31874242 -0.40975723
4.9546003 0.3002589 -0.40847391
4.6963115 0.2846061 -0.40882498
4.4769621 0.27123463 -0.41038033
4.2732491 0.25889277 -0.41113988
4.0889935 0.24772973 -0.41230536
3.9125795 0.23697324 -0.41261128
3.7479029 0.22699927 -0.41233554
3.6026525 0.21820189 -0.41304928
3.4690957 0.21005198 -0.41382816
3.3511124 0.20290816 -0.41508299
3.2331657 0.19570991 -0.41550362
3.1268795 0.18927619 -0.41639781
3.0206828 0.1828479 -0.41612187
2.9222496 0.17683835 -0.41619587
2.831593 0.17135233 -0.41651282
2.7525904 0.16657151 -0.41757631
2.6736112 0.16174531 -0.4181188
2.6023827 0.15743619 -0.41918761
2.5273862 0.15285486 -0.4188031
2.4677916 0.14925061 -0.42053884
2.3967123 0.14495178 -0.4197202
2.3334002 0.14108182 -0.41948107
2.2662742 0.13702327 -0.41812742
2.2183676 0.13412674 -0.41979355
2.1743531 0.13142745 -0.42162415
2.1226873 0.12830454 -0.42169252
2.0672486 0.12491737 -0.42051968
2.0195272 0.12203372 -0.4203001
1.9680083 0.11892058 -0.41898167
1.9203566 0.11600751 -0.41803014
5.961668 0.38750905 -0.40970924
5.5943012 0.36363018 -0.41019887
5.2581577 0.34168866 -0.40975723
4.949358 0.32162204 -0.40815353
4.695025 0.30509484 -0.40882498
4.4835 0.29127079 -0.41109219
4.275959 0.27778789 -0.4115133
4.0839953 0.26531696 -0.41191417
3.9115083 0.25404277 -0.41261128
3.7430022 0.24309872 -0.41190913
3.6016662 0.23391929 -0.41304928
3.4681461 0.22518672 -0.41382816
3.3501952 0.21752816 -0.41508299
3.232281 0.20981535 -0.41550362
3.1260238 0.20291793 -0.41639781
3.0159945 0.19577566 -0.41558975
2.9175911 0.18933691 -0.41564608
2.8231051 0.18320525 -0.41537791
2.7441292 0.17808011 -0.41640663
2.6728802 0.17340955 -0.4181188
2.601671 0.1687897 -0.41918761
2.5343866 0.16438004 -0.42007798
2.4709597 0.16026618 -0.4211939
2.3960571 0.15540799 -0.4197202
2.3289256 0.15101305 -0.41879115
2.2656548 0.14691041 -0.41812742
2.2139311 0.14355652 -0.41906852
2.1661048 0.1404174 -0.42013958
2.1106365 0.13682167 -0.41941309
2.0590436 0.13344108 -0.41896507
2.0151589 0.13059704 -0.41950557
1.9712836 0.12775359 -0.41979367
1.9388782 0.1256195 -0.42217726
5.9677033 0.41405797 -0.41013935
5.6121011 0.38938516 -0.41152599
5.2682796 0.36543736 -0.4105736
4.9517984 0.34348446 -0.40838727
4.689774 0.32530898 -0.4084048
4.4821935 0.31083143 -0.41101375
4.2863507 0.29725009 -0.41255859
4.0866833 0.28340355 -0.41223386
3.9142454 0.27137667 -0.41295171
3.7535338 0.26023445 -0.41312268
3.60449 0.24990118 -0.41343036
3.4748769 0.24085408 -0.41469109
3.3530889 0.23241261 -0.41550365
3.2352073 0.22418514 -0.41594404
3.1289787 0.216824 -0.41685778
3.0189795 0.20920153 -0.41606906
2.9206023 0.20233324 -0.41614479
2.8261416 0.19578919 -0.41589591
2.7510393 0.19058625 -0.41752818
2.6798058 0.18560436 -0.41927686
2.6086121 0.18067345 -0.42038214
2.5374973 0.17570351 -0.42067105
2.4702442 0.17104672 -0.42115065
2.3953636 0.16586177 -0.4196783
2.3320875 0.16143946 -0.41944027
2.268832 0.15706058 -0.4187952
2.2209492 0.15374587 -0.42047971
2.1693048 0.15013273 -0.42084393
2.1176717 0.14655933 -0.42089567
2.066087 0.14295304 -0.42048353
2.0145774 0.13938905 -0.41947034
1.9745265 0.13661793 -0.42057109
1.942127 0.13434215 -0.42297271
5.9813857 0.44123977 -0.41120812
5.6181188 0.414442 -0.41209596
5.2588668 0.38784811 -0.40996802
4.9502525 0.36508742 -0.40838727
4.6999531 0.3466275 -0.40941903
4.4885535 0.33095774 -0.41172546
4.2888904 0.31623587 -0.41293195
4.0815315 0.3009465 -0.41184273
3.9168983 0.28873876 -0.4133606
3.7562349 0.27689525 -0.41354904
3.6072357 0.26591161 -0.41387445
3.4737928 0.25601375 -0.41469109
3.3481767 0.24675602 -0.4150244
3.2264702 0.2377298 -0.41495016
3.1241412 0.2301901 -0.41634315
3.0218973 0.22265665 -0.41660112
2.9351194 0.21621126 -0.41834369
2.8329692 0.20868652 -0.41703069
2.7540333 0.20287181 -0.41811296
2.6789706 0.19729541 -0.41927686
2.6077991 0.19205391 -0.42038214
2.5367064 0.18677373 -0.42067105
2.4656339 0.18154076 -0.42049569
2.3946171 0.1763119 -0.4196783
2.3275263 0.17133129 -0.41875041
2.2757878 0.16752274 -0.42021006
2.2202573 0.1634351 -0.42047971
2.1724539 0.15987813 -0.42158616
2.1093695 0.15523554 -0.41937616
2.0616257 0.15168574 -0.41970631
2.0177641 0.1484586 -0.42026478
1.9777222 0.14551248 -0.42138299
1.9415224 0.14281496 -0.42297271
5.9871812 0.46794209 -0.41163769
5.6162643 0.43895221 -0.41199765
5.2571316 0.41079104 -0.40987599
4.9525008 0.38698727 -0.40862086
4.7061625 0.36773846 -0.41001281
4.4948301 0.35114604 -0.41235849
4.287477 0.33494717 -0.41285688
4.0724373 0.31814778 -0.41098922
3.9194813 0.30612969 -0.41370082
3.7588694 0.29358515 -0.41390955
3.6099174 0.28195134 -0.41425532
3.476517 0.27147108 -0.41509202
3.3509402 0.26166517 -0.415445
3.2292721 0.25210777 -0.41539055
3.1269748 0.24412145 -0.41680303
3.0286205 0.23644297 -0.41761222
2.9418666 0.22961849 -0.41939166
2.8397453 0.22164769 -0.41811576
2.7646806 0.21578877 -0.41981888
2.6857872 0.2095838 -0.42043468
2.6107886 0.20373133 -0.42095649
2.5281904 0.19724144 -0.41935202
2.4648254 0.19229792 -0.42045254
2.3938322 0.18675925 -0.4196364
2.3305972 0.18178493 -0.41939947
2.2712123 0.17715295 -0.41946286
2.2195303 0.1731218 -0.42044085
2.1679194 0.1690581 -0.42080596
2.1086793 0.16443847 -0.41933927
2.0609517 0.16068038 -0.41967022
2.0171046 0.15726188 -0.42022946
1.9732664 0.15384407 -0.42053655
1.9256654 0.1500991 -0.41962156
5.9850826 0.49406156 -0.41163769
5.6142955 0.46345353 -0.41199765
5.2436452 0.43276465 -0.40896785
4.9585247 0.4092333 -0.40926135
4.7083917 0.3885895 -0.41035083
4.4932551 0.37075505 -0.41235849
4.285975 0.35365158 -0.41285688
4.0671368 0.33559442 -0.41059819
3.9181082 0.32322869 -0.41370082
3.7575526 0.30998346 -0.41390955
3.604785 0.29738075 -0.4138113
3.4752994 0.28663763 -0.41509202
3.3536303 0.27660254 -0.41592416
3.2281415 0.26619565 -0.41539055
3.1258798 0.25776309 -0.41680303
3.02756 0.24965553 -0.41761222
2.9408369 0.24245258 -0.41939166
2.8464546 0.23467138 -0.4192504
2.7637129 0.22784987 -0.41981888
2.6810005 0.22098368 -0.41983232
2.6021874 0.21448743 -0.41971657
2.5234647 0.20795432 -0.4187147
2.463963 0.20305088 -0.42045254
2.3929944 0.1972025 -0.4196364
2.3259499 0.19163661 -0.4187097
2.2665892 0.18674582 -0.4187555
2.2149284 0.18248945 -0.41971597
2.1671612 0.17851579 -0.42080596
2.1079419 0.17363772 -0.41933927
2.0526004 0.169043 -0.41811588
2.0125873 0.16574772 -0.41943508
1.9649602 0.16182536 -0.41891286
1.9211879 0.1581867 -0.41879228
5.9867597 0.52050978 -0.41179994
5.608346 0.48760921 -0.41161448
5.2417145 0.45564079 -0.40887603
4.9566994 0.43086559 -0.4091745
4.7027817 0.40879357 -0.40993044
4.4954772 0.39069441 -0.41263554
4.2921457 0.37302318 -0.41352826
4.0733848 0.35401106 -0.41130891
3.9127975 0.33998588 -0.41322348
3.7484348 0.32570428 -0.41299134
3.6034603 0.31310734 -0.41374817
3.4778872 0.30213502 -0.41549283
3.3562608 0.29156896 -0.41634455
3.2346764 0.28094965 -0.41632766
3.1247327 0.27140045 -0.41674832
3.0187385 0.26219425 -0.41649535
2.9243467 0.25394437 -0.41714177
2.8338597 0.24608667 -0.4174988
2.7588518 0.23957314 -0.41918585
2.672328 0.23201258 -0.41858083
2.5973916 0.22550659 -0.41905108
2.5225406 0.21896362 -0.41867054
2.4707339 0.21446666 -0.42171907
2.3997855 0.20830815 -0.42093933
2.325099 0.20178425 -0.41866896
2.2619326 0.19630235 -0.41800854
2.2141182 0.19215277 -0.41967717
2.166369 0.18797073 -0.42076802
2.1109886 0.18316552 -0.42006195
2.0518506 0.17799817 -0.41807994
2.0080421 0.17419776 -0.41860554
1.9642427 0.17039818 -0.41887844
1.9280925 0.16722824 -0.4204171
5.9883122 0.54698139 -0.41206697
5.6100445 0.51242989 -0.41189933
5.2280412 0.4774451 -0.40796807
4.954772 0.45248911 -0.4091745
4.700953 0.42930937 -0.40993044
4.4898558 0.40995213 -0.41227981
4.2866049 0.39139405 -0.41315505
4.0795426 0.37248793 -0.41209087
3.8996706 0.35599586 -0.41199732
3.7392442 0.34135073 -0.41213894
3.5981951 0.32847455 -0.41330424
3.4726729 0.3169547 -0.41503116
3.3472352 0.30550587 -0.41538632
3.2257028 0.29435667 -0.41533402
3.1158063 0.28432825 -0.4157193
3.0137117 0.27501175 -0.41596341
2.915508 0.26599902 -0.4160426
2.8289101 0.25809819 -0.41693154
2.7500877 0.25090674 -0.41801655
2.6674466 0.24331996 -0.41797855
2.5925422 0.23648731 -0.41843119
2.5177231 0.22961813 -0.41803327
2.4621046 0.22454567 -0.42040938
2.3911898 0.21807821 -0.4195945
2.3241963 0.21192746 -0.41866896
2.2648804 0.20651884 -0.41871583
2.2132587 0.20181182 -0.41967717
2.1693473 0.19776966 -0.4215101
2.1101694 0.19237468 -0.42006195
2.0510545 0.18694933 -0.41807994
1.9996451 0.18226348 -0.41701689
1.9596753 0.17862032 -0.41806665
1.9349474 0.17633237 -0.42207554
5.9897623 0.57347786 -0.41212401
5.5961351 0.5357908 -0.41084853
5.233676 0.5009957 -0.40838984
4.9527645 0.47410536 -0.40900084
4.7067971 0.45056 -0.41044128
4.4957833 0.43028146 -0.4128336
4.2848706 0.41009545 -0.41300479
4.0856304 0.39102665 -0.41272956
3.9019618 0.37337938 -0.4122692
3.7377334 0.35766435 -0.41200787
3.6006052 0.3445425 -0.41362193
3.4751327 0.33247483 -0.41537097
3.3420258 0.31974015 -0.41479003
3.2244022 0.30842999 -0.41522098
3.1106958 0.29755342 -0.41509572
3.0086453 0.28779179 -0.415326
2.9104843 0.27835095 -0.41539094
2.8200769 0.26970464 -0.41569814
2.7489812 0.26290524 -0.41792017
2.666374 0.25495794 -0.41788507
2.5953393 0.24816562 -0.41896006
2.5205483 0.24096972 -0.41858214
2.4572823 0.23492137 -0.41966838
2.3863995 0.22814482 -0.41883838
2.3232641 0.22206801 -0.41858748
2.2677965 0.21676618 -0.41934359
2.2161927 0.21183366 -0.4203243
2.1646607 0.20686987 -0.42069212
2.1055102 0.20121704 -0.41922852
2.0502336 0.19589832 -0.41800806
2.00646 0.19171578 -0.41853517
1.9626955 0.18753411 -0.41880962
1.9379742 0.18513788 -0.42283681
5.9833255 0.59921926 -0.41185707
5.6053734 0.56136805 -0.41170269
5.2430654 0.52499115 -0.40929738
4.9583964 0.49648705 -0.40964091
4.716403 0.47225612 -0.41145471
4.4899926 0.44950634 -0.412478
4.2791715 0.42840043 -0.41263169
4.0838857 0.40884978 -0.41272956
3.9118919 0.39156204 -0.41349497
3.7438645 0.37474328 -0.41286001
3.6029291 0.36063632 -0.41406572
3.4775085 0.348021 -0.41583249
3.3444562 0.33470544 -0.41526899
3.2230256 0.32249612 -0.41522098
3.1132209 0.31150907 -0.41561007
3.0112116 0.30130199 -0.41585779
2.9207866 0.29220259 -0.4170393
2.8304102 0.2831611 -0.4173995
2.751651 0.27528185 -0.41850466
2.6690767 0.26697385 -0.41848719
2.5942318 0.25948754 -0.41896006
2.5194728 0.25196534 -0.41858214
2.4524021 0.24525779 -0.41901368
2.3777237 0.23778942 -0.41749379
2.3146214 0.23143794 -0.41720828
2.2630064 0.22627699 -0.41863644
2.2152474 0.22150157 -0.4203243
2.1599214 0.21593148 -0.41995016
2.1007996 0.21002094 -0.41846904
2.0493593 0.20484225 -0.41800806
2.0094101 0.20084915 -0.41932935
1.9694626 0.19685623 -0.42043293
1.9409462 0.19397169 -0.42366591
5.9845371 0.62572664 -0.41201898
5.6067529 0.58622658 -0.41188902
5.2484789 0.54867387 -0.4098103
4.960062 0.51852286 -0.4098739
4.7297869 0.49445 -0.41272295
4.4918647 0.46949843 -0.41275477
4.2772684 0.44706845 -0.41255665
4.0936666 0.42787802 -0.41383025
3.9217448 0.40983921 -0.41465193
3.7576487 0.39269045 -0.41449836
3.6129084 0.37756449 -0.41533372
3.4798219 0.36359498 -0.41623294
3.346827 0.34969878 -0.41568923
3.2254486 0.33695945 -0.41566104
3.1156905 0.32549313 -0.41606978
3.0137243 0.31484082 -0.41633669
2.9233375 0.30534664 -0.41753748
2.829155 0.29550913 -0.41734985
2.7504311 0.28728628 -0.41845641
2.6717322 0.27901897 -0.41904247
2.600754 0.27160645 -0.42015398
2.5260229 0.26375744 -0.41981202
2.4589763 0.25675669 -0.42027995
2.3804979 0.24856228 -0.41812432
2.317421 0.24193513 -0.4178572
2.2620049 0.23614979 -0.41859674
2.2142673 0.23116605 -0.42028543
2.1589658 0.22535458 -0.41991228
2.0998704 0.21918614 -0.41843221
2.0484533 0.21378306 -0.41797212
2.0123258 0.21001267 -0.42008823
1.9723927 0.20584512 -0.42120993
1.9324955 0.20164724 -0.42197379
5.9933724 0.6530996 -0.41281953
5.6196332 0.61237311 -0.41302761
5.2499065 0.57199121 -0.41011274
4.9654927 0.54100358 -0.41051382
4.735322 0.51592582 -0.41339844
4.4936404 0.48951462 -0.41311029
4.2791429 0.46614835 -0.41292965
4.0994883 0.4465777 -0.41461179
3.9315052 0.42820901 -0.41587752
3.7636197 0.40992337 -0.41535035
3.618943 0.39416558 -0.41622117
3.4743462 0.37835512 -0.41577148
3.3452692 0.3642987 -0.41568923
3.2200959 0.35061049 -0.41516444
3.1180902 0.33950388 -0.41658407
3.0200162 0.32882541 -0.41740012
2.925822 0.31851768 -0.41808686
2.831681 0.30826908 -0.41791689
2.7491512 0.29928455 -0.41845641
2.6666524 0.29025626 -0.41844037
2.5995443 0.28295177 -0.42015398
2.524848 0.27477676 -0.41981202
2.4616609 0.26790014 -0.42093459
2.3870413 0.25977939 -0.41946876
2.323988 0.25287628 -0.41923627
2.2609529 0.24601737 -0.41859674
2.2094214 0.24041016 -0.41956082
2.1541493 0.23435788 -0.41917038
2.0988939 0.22834645 -0.41843221
2.0513067 0.22313303 -0.418749
2.0113904 0.21879108 -0.42008823
1.9714757 0.21444932 -0.42120993
1.9278023 0.20966466 -0.42114478
5.6169147 0.63688833 -0.41292894
5.2589769 0.59620965 -0.41092771
4.9669604 0.56310374 -0.41074654
4.7407665 0.53746021 -0.41399065
4.4991994 0.50999421 -0.4137423
4.2925301 0.48656777 -0.41434634
4.1013699 0.46489933 -0.41493052
3.9257464 0.44492263 -0.41540003
3.7618024 0.42634213 -0.41528428
3.6133394 0.40951616 -0.415714
3.4726694 0.39351198 -0.41571051
3.3436551 0.37889248 -0.41563052
3.2223926 0.36509442 -0.41560444
3.1127386 0.35267073 -0.41601509
3.0147147 0.34156469 -0.41681546
2.9205689 0.33084643 -0.41748616
2.8303161 0.32062247 -0.41786718
2.7478266 0.31127793 -0.41840813
2.6653678 0.30188975 -0.41839355
2.5944598 0.29385844 -0.4194887
2.5236323 0.28579164 -0.41976771
2.4643025 0.27907276 -0.42154592
2.3935397 0.27105913 -0.42077118
2.3305106 0.26388016 -0.42057443
2.2674999 0.25674555 -0.41997108
2.2121727 0.25048095 -0.42024657
2.1531136 0.2437557 -0.41913256
2.1016924 0.23793426 -0.41915467
2.0541248 0.2325128 -0.41948983
2.0142243 0.22799632 -0.42084697
1.9705285 0.22305027 -0.42117533
1.9306695 0.21850437 -0.42193988
5.6140823 0.6613906 -0.41292894
5.2717967 0.62097287 -0.41213721
4.9721889 0.58568162 -0.41138634
4.7383761 0.55814052 -0.41399065
4.5046582 0.53053075 -0.41445318
4.3019509 0.50665718 -0.41546518
4.1031623 0.48324507 -0.41532123
3.931484 0.46295628 -0.41621694
3.7599063 0.44275197 -0.41528428
3.6115181 0.42527837 -0.415714
3.4747717 0.40911412 -0.41617188
3.3458202 0.3939316 -0.41610935
3.2246168 0.37960425 -0.41610098
3.1111703 0.36624923 -0.41601509
3.0170391 0.35516801 -0.4173471
2.9229383 0.34403872 -0.41803548
2.8365669 0.33387253 -0.41900116
2.750278 0.32371604 -0.41899249
2.6678584 0.31396782 -0.41899556
2.5893226 0.30472529 -0.41886908
2.5223613 0.29680032 -0.41976771
2.4630613 0.28982261 -0.42154592
2.3961556 0.28195 -0.42144334
2.3331556 0.27449563 -0.42126387
2.2625427 0.26618803 -0.41926408
2.2110589 0.26013097 -0.42024657
2.1558385 0.25359613 -0.41987437
2.1082451 0.24799763 -0.42067337
2.0568929 0.24192053 -0.42026666
2.0094118 0.23633607 -0.42005292
1.9657416 0.23119983 -0.42036381
1.9296978 0.2269264 -0.42193988
5.599556 0.68446392 -0.41187829
5.276783 0.64491612 -0.41255638
4.9696002 0.607373 -0.41121158
4.7397733 0.57928407 -0.41416165
4.4984531 0.54971081 -0.41393954
4.2958541 0.52495319 -0.41494116
4.0933132 0.50020272 -0.41439587
3.9178724 0.47869447 -0.41485381
3.7540989 0.45868424 -0.41472632
3.6096427 0.44103426 -0.41558704
3.4729679 0.42427352 -0.41604975
3.3479321 0.40899858 -0.41647044
3.2267902 0.39414215 -0.41648406
3.1134007 0.380292 -0.41641983
3.0116336 0.36786148 -0.41670954
2.9175849 0.35632205 -0.41738358
2.827425 0.34531087 -0.41776776
2.7450199 0.33524683 -0.4183116
2.6664777 0.3256073 -0.4189018
2.5918112 0.31648967 -0.41939756
2.5172312 0.30733803 -0.4190422
2.4579651 0.30010203 -0.42080492
2.3910975 0.29193792 -0.42068708
2.3243172 0.28374326 -0.4198032
2.2613742 0.27605945 -0.41918454
2.2137275 0.27024293 -0.42089331
2.1623397 0.26393142 -0.42128199
2.1147647 0.25812447 -0.42211768
2.0596323 0.25135863 -0.42097107
2.0083759 0.24510328 -0.41998228
1.9609358 0.23931366 -0.41948336
1.9249147 0.23488353 -0.42104325
5.5887861 0.7079109 -0.41130939
5.2739186 0.66793424 -0.41255638
4.9707651 0.62954026 -0.41153133
4.7372003 0.59995961 -0.41416165
4.4921527 0.56884503 -0.41358423
4.2935228 0.54369235 -0.41494116
4.0910916 0.51805836 -0.41439587
3.9041841 0.49432087 -0.41362885
3.7520616 0.47506016 -0.41472632
3.6115341 0.45726752 -0.41603059
3.4710836 0.43942311 -0.41604975
3.3461158 0.42360273 -0.41647044
3.2211959 0.40773132 -0.41598764
3.1155534 0.39435938 -0.41693395
3.01 0.38099867 -0.41670954
2.9198394 0.36953458 -0.41793275
2.8297257 0.3581298 -0.4183346
2.7511945 0.3481909 -0.41948009
2.6726897 0.33820793 -0.42010555
2.5980582 0.3287639 -0.42063653
2.5235133 0.31928608 -0.42031589
2.460453 0.31130743 -0.42145938
2.389801 0.30236822 -0.42068708
2.3192425 0.29339969 -0.41911387
2.2563367 0.28544173 -0.41847765
2.2087193 0.27941778 -0.42016888
2.1611676 0.27336386 -0.42128199
2.1136181 0.26734939 -0.42211768
2.058516 0.26034304 -0.42097107
2.0072875 0.25386411 -0.41998228
1.959873 0.24786755 -0.41948336
1.9238715 0.24328029 -0.42104325
5.5895143 0.73279709 -0.41149545
5.2670999 0.69043434 -0.41216144
4.971838 0.65173018 -0.41176358
4.7345448 0.62062472 -0.41407833
4.4934921 0.58894676 -0.41386044
4.2911167 0.5624221 -0.41486561
4.0926533 0.53641015 -0.4147144
3.9058492 0.51185703 -0.41396841
3.7538104 0.49193251 -0.41508603
3.6095119 0.47302237 -0.41596705
3.4691405 0.45456529 -0.41598868
3.3403988 0.4376961 -0.41593295
3.2193933 0.42178348 -0.41593096
3.1176498 0.4084537 -0.41739318
3.0121531 0.39463225 -0.41718805
2.9182065 0.38227215 -0.4178814
2.824311 0.36997229 -0.41771805
2.7496564 0.36019287 -0.41943166
2.6711957 0.34986743 -0.42005852
2.5966063 0.34009787 -0.42059085
2.5221033 0.33029488 -0.42027149
2.4590786 0.32204112 -0.42141607
2.3884664 0.31279373 -0.42064506
2.3217597 0.30401665 -0.41976234
2.2588863 0.29578385 -0.41914478
2.2074862 0.28905338 -0.42013001
2.1561587 0.28229418 -0.42050233
2.1086395 0.27607274 -0.42132133
2.0573676 0.26932347 -0.42093486
2.0137527 0.26361397 -0.42153469
1.9625688 0.25691363 -0.42026019
1.922799 0.25167337 -0.42100939
5.5939846 0.75822544 -0.41206419
5.2640371 0.71340978 -0.41216144
4.972805 0.67394048 -0.41208327
4.7395043 0.64232236 -0.41475326
4.498589 0.60959232 -0.41457096
4.2963281 0.58218449 -0.41561112
4.0979767 0.55530638 -0.4154954
3.9151278 0.5304594 -0.41519317
3.7516282 0.50830686 -0.41508603
3.6112592 0.48928836 -0.41641051
3.467124 0.46969789 -0.41598868
3.3307738 0.45122626 -0.41497567
3.2136827 0.43530658 -0.41543463
3.1158378 0.4220531 -0.41739318
3.0142374 0.40829089 -0.41771948
2.9165106 0.39500156 -0.4178814
2.82267 0.38229212 -0.41771805
2.7480586 0.37218702 -0.41943166
2.6696436 0.36151937 -0.42005852
2.5989196 0.351942 -0.42121026
2.5244575 0.34181356 -0.42090827
2.4576499 0.33276778 -0.42141607
2.390892 0.32372868 -0.42131701
2.3242214 0.31466013 -0.42045161
2.2613814 0.30615264 -0.4198516
2.2024002 0.29816762 -0.41940564
2.1473055 0.29067054 -0.4190191
2.1036177 0.28475675 -0.42056221
2.0561728 0.27829784 -0.42093486
2.0125833 0.27239808 -0.42153469
1.9690021 0.26649949 -0.42188281
1.9368138 0.26210847 -0.42432442
5.6060634 0.78478795 -0.41310292
5.2647381 0.73691249 -0.41237083
4.9698243 0.69563299 -0.41199568
4.7366638 0.66299719 -0.41466978
4.495894 0.62921625 -0.41449171
4.2899036 0.60038722 -0.41516277
4.0878234 0.57210541 -0.41464236
3.9166305 0.54807663 -0.41553238
3.7532272 0.52521068 -0.41544563
3.6014102 0.50396603 -0.41546011
3.4612074 0.48428506 -0.41546652
3.3249409 0.46521896 -0.41443846
3.2079227 0.44878891 -0.41488177
3.1063039 0.43457243 -0.41631037
3.0162671 0.42197627 -0.41819778
2.9185967 0.40826023 -0.41837907
2.8248098 0.39514109 -0.41823503
2.7425907 0.38364005 -0.41879916
2.6680481 0.37316543 -0.42001152
2.5973666 0.36327955 -0.42116448
2.5153155 0.35175875 -0.41959038
2.452368 0.34295574 -0.42071849
2.3818421 0.33309293 -0.41993111
2.3266416 0.3253319 -0.42109987
2.2600312 0.31601787 -0.41981179
2.2010856 0.30777556 -0.41936687
2.1498222 0.30056921 -0.41972283
2.1061573 0.29446438 -0.42128423
2.0625291 0.28832796 -0.42245176
2.0189586 0.28223708 -0.42308679
1.9678279 0.27508935 -0.42184812
1.9318786 0.27002949 -0.42346162
5.6064415 0.80979842 -0.41338724
5.265327 0.76043379 -0.41267294
4.9705949 0.71786773 -0.41231531
4.733726 0.68365842 -0.41466978
