# .PCD v0.7 - Point Cloud Data file format
VERSION 0.7
FIELDS x y z
SIZE 4 4 4
TYPE F F F
COUNT 1 1 1
WIDTH 1494
HEIGHT 1
VIEWPOINT 0 0 0 1 0 0 0
POINTS 1494
DATA ascii
2.5031815 -2.6119354 0.33045876
2.5068924 -2.6158078 0.31426758
2.5104935 -2.6196568 0.29828167
2.5141046 -2.623425 0.28200692
2.5176194 -2.6271844 0.26569074
2.5211174 -2.6308346 0.24958183
2.5245771 -2.634445 0.23318404
2.5279396 -2.6380458 0.21674576
2.5312874 -2.6415396 0.20051678
2.5318947 -2.6421733 0.18380293
2.5378027 -2.6484311 0.1674415
2.5409985 -2.6517663 0.15109536
2.5441504 -2.6550555 0.13446034
2.5472035 -2.6583347 0.11778685
2.5475445 -2.6586905 0.10121921
2.5504932 -2.6618607 0.084487952
2.5534356 -2.6649318 0.067719251
2.5536206 -2.6651247 0.051111277
2.5564113 -2.6681304 0.03428686
2.5618978 -2.6738567 0.017444441
2.5595918 -2.676121 0.00078163989
2.5622208 -2.6789634 -0.016150661
2.5567434 -2.6732364 -0.033013728
2.5809121 -2.6985064 -0.050129898
2.6184721 -2.7378733 -0.06816975
2.6560185 -2.7771318 -0.086707711
2.6772645 -2.7994442 -0.10484352
2.6876993 -2.8103557 -0.12303042
2.6980753 -2.8212049 -0.14135742
2.7029543 -2.8264053 -0.15923911
2.7159085 -2.839951 -0.17798521
2.720711 -2.8449731 -0.1963221
2.7227192 -2.8471723 -0.21424522
2.708539 -2.8323441 -0.23108825
2.7050869 -2.8287342 -0.24873933
2.6934628 -2.8166771 -0.26528725
2.6845193 -2.8073246 -0.28223714
2.6727848 -2.795151 -0.2987735
2.4651003 -2.5489442 0.75285405
2.4727035 -2.5568953 0.73847896
2.4750226 -2.5592935 0.72222364
2.4745817 -2.5589268 0.70519412
2.4767625 -2.561182 0.68916941
2.478925 -2.5634181 0.67288762
2.4836617 -2.5684061 0.65729862
2.4830198 -2.5677421 0.64052582
2.4823527 -2.5670524 0.62353122
2.481585 -2.5663481 0.6065588
2.4834571 -2.568284 0.59048915
2.4852612 -2.5702398 0.57416385
2.4897413 -2.574873 0.55842829
2.4914627 -2.5766532 0.54230607
2.4931138 -2.5784507 0.52592832
2.4920692 -2.5773706 0.50899059
2.4909461 -2.5762088 0.49232182
2.4897466 -2.5750585 0.47543374
2.4939234 -2.5793784 0.45956367
2.50068 -2.5864565 0.4443725
2.5020647 -2.587889 0.42793435
2.4953046 -2.5808969 0.410157
2.5046139 -2.5906157 0.39527723
2.5166438 -2.6030588 0.38044626
2.5151238 -2.6014867 0.36351308
2.5188925 -2.6054759 0.34760031
2.5226736 -2.6093869 0.33139807
2.5264044 -2.613246 0.31515339
2.527319 -2.6142833 0.29879481
2.5309482 -2.6180372 0.28248432
2.5344806 -2.621783 0.26613238
2.5379958 -2.6254194 0.24998823
2.538763 -2.6262128 0.23330566
2.5421417 -2.6297996 0.21684942
2.542794 -2.6304746 0.20038907
2.5461152 -2.6339102 0.183871
2.5520506 -2.6401424 0.16749145
2.5525484 -2.6406577 0.15096717
2.5557141 -2.6439326 0.13433199
2.5587814 -2.647198 0.11765834
2.5618372 -2.6503594 0.10119788
2.5620854 -2.6507089 0.084359266
2.5677552 -2.6565747 0.067661941
2.5679407 -2.6567669 0.051036384
2.5734589 -2.6625688 0.034230091
2.5789702 -2.6682708 0.017351709
2.5766687 -2.6705496 0.00065375277
2.5765975 -2.6705687 -0.016297216
2.5738065 -2.6676762 -0.033212844
2.5899487 -2.6844072 -0.050207667
2.6249683 -2.720799 -0.068161167
2.6626856 -2.7598932 -0.08666534
2.6948736 -2.7933538 -0.10519038
2.7053549 -2.8042181 -0.12341347
2.7130663 -2.8122113 -0.14163518
2.7206767 -2.8201985 -0.15969375
2.7336884 -2.8336861 -0.17847614
2.7439287 -2.844301 -0.19723834
2.7432351 -2.8436813 -0.21501951
2.7344027 -2.8345253 -0.23237541
2.728224 -2.8281207 -0.24986748
2.7165437 -2.8161108 -0.26648498
2.7048507 -2.8039894 -0.28322238
2.690356 -2.7890608 -0.29951051
2.4606404 -2.5222163 0.78183252
2.4631085 -2.5247462 0.76572877
2.4842036 -2.5463691 0.75528789
2.4891779 -2.5515571 0.74006706
2.4915125 -2.5539503 0.72377682
2.491075 -2.5535908 0.70671231
2.4932704 -2.5558412 0.69065309
2.4954472 -2.5580728 0.67433625
2.50021 -2.5630448 0.65871215
2.5022545 -2.5651405 0.64259428
2.501591 -2.5644603 0.62554699
2.4981372 -2.5610092 0.60786742
2.4973307 -2.5601823 0.59112614
2.4991455 -2.5621321 0.57478321
2.5036476 -2.5667479 0.55903006
2.5053787 -2.5685225 0.54289043
2.5070393 -2.5703146 0.5264951
2.5086923 -2.5720096 0.51008874
2.5075674 -2.5708563 0.49338517
2.5063663 -2.5697145 0.47646171
2.510565 -2.5740194 0.46055627
2.5173554 -2.5810714 0.4453302
2.5187495 -2.5825007 0.42885661
2.5119615 -2.575541 0.41104382
2.5213158 -2.5852225 0.39612913
2.5306902 -2.5948343 0.38085446
2.5318785 -2.5960526 0.36429399
2.5329518 -2.5972443 0.34797329
2.5394673 -2.603925 0.33210847
2.5432169 -2.60777 0.31582823
2.5468562 -2.6115925 0.29975456
2.5477855 -2.6125455 0.28308856
2.5513361 -2.6162777 0.26670104
2.5548689 -2.6199005 0.25052184
2.558363 -2.6234834 0.23405264
2.5617592 -2.6270578 0.21754296
2.5624166 -2.627732 0.20102997
2.563031 -2.6283619 0.18426263
2.5662704 -2.6317759 0.16766945
2.5694959 -2.6350837 0.15128803
2.5726769 -2.6383457 0.13461719
2.5730331 -2.6388035 0.11778311
2.5761032 -2.6419518 0.10130508
2.5790796 -2.6450968 0.08453799
2.5820487 -2.6481419 0.067733467
2.5849621 -2.65113 0.051144283
2.5905056 -2.656908 0.034302305
2.5960419 -2.6625862 0.01738824
2.5937457 -2.6648798 0.00065512909
2.5936742 -2.6648993 -0.016331526
2.5908709 -2.662019 -0.033282842
2.5989127 -2.6702819 -0.050155092
2.6340911 -2.7065206 -0.068090752
2.6774263 -2.7510474 -0.086753592
2.7152061 -2.7899637 -0.10550786
2.7311797 -2.8063769 -0.12403178
2.738924 -2.8143344 -0.14234264
2.7492886 -2.8250833 -0.16064809
2.814065 -2.8916452 -0.18289824
2.7657814 -2.8421297 -0.23398595
2.7622883 -2.8385403 -0.25185058
2.7505488 -2.8265753 -0.26860836
2.733362 -2.8089135 -0.28492174
2.5006695 -2.5409713 0.75678593
2.5083539 -2.5488684 0.74232447
2.5080209 -2.5485301 0.72520512
2.507586 -2.5481772 0.70810568
2.5097954 -2.5504224 0.69201189
2.509294 -2.5499129 0.6749357
2.5140803 -2.5548658 0.65929383
2.5161357 -2.5569544 0.64315856
2.5181701 -2.5590219 0.62676549
2.517406 -2.5583348 0.60970515
2.5138986 -2.5547702 0.59227502
2.5184302 -2.5594649 0.57651603
2.522958 -2.5640666 0.56070977
2.5247021 -2.5658391 0.54451793
2.5236647 -2.5648744 0.52750295
2.5253284 -2.566565 0.51106119
2.5242014 -2.5654197 0.49432287
2.5257139 -2.5670466 0.47787794
2.5299361 -2.5713377 0.46191922
2.536761 -2.5783646 0.44664049
2.5381656 -2.579792 0.4301137
2.5340731 -2.5756326 0.41269135
2.5407512 -2.5825102 0.39728051
2.5501711 -2.5920849 0.38195214
2.5486422 -2.5905309 0.36494806
2.5524499 -2.5944917 0.34896514
2.5589974 -2.6011472 0.33304667
2.5600376 -2.6022046 0.31637564
2.563695 -2.6060128 0.30026674
2.56463 -2.6069634 0.28356516
2.5681982 -2.6106818 0.26714185
2.5717483 -2.6142905 0.25092742
2.5725253 -2.6150804 0.23417358
2.5759373 -2.6186404 0.21764593
2.5793333 -2.6220925 0.20132886
2.5826871 -2.6255021 0.18472153
2.5859425 -2.6289032 0.1680747
2.5864468 -2.6294158 0.15148014
2.5896425 -2.6326644 0.13477349
2.5927391 -2.6359046 0.11802836
2.5930853 -2.6362565 0.10139041
2.5960753 -2.6393886 0.084587492
2.5990579 -2.642421 0.067747131
2.6019843 -2.6453962 0.051122662
2.6075528 -2.6511502 0.034244716
2.6131136 -2.6568038 0.01729469
2.6108222 -2.6591117 0.00052642386
2.6080136 -2.6563439 -0.016478624
2.605197 -2.6534753 -0.033447642
2.610538 -2.6589153 -0.050285164
2.6376653 -2.6866388 -0.068010934
2.6811945 -2.7309766 -0.086622424
2.7218802 -2.7725143 -0.10543183
2.773483 -2.8250771 -0.12553024
2.7812567 -2.8329954 -0.14403765
2.7983403 -2.8506954 -0.27219829
2.7783358 -2.8303165 -0.28845882
2.519809 -2.5381711 0.75921935
2.522146 -2.5406139 0.74311835
2.5218141 -2.5402794 0.72598159
2.5213802 -2.5399308 0.70886469
2.5208998 -2.5394471 0.69201189
2.5231006 -2.5416639 0.67565989
2.5252042 -2.5438719 0.65929383
2.5272684 -2.5459514 0.64315856
2.5320227 -2.550741 0.62743723
2.5312579 -2.5500593 0.61035931
2.530452 -2.5492475 0.59354872
2.5322912 -2.5511894 0.57713526
2.5368409 -2.555773 0.56131136
2.5385945 -2.5575397 0.54510218
2.5402775 -2.5593245 0.52863616
2.5419521 -2.5610118 0.51215905
2.5408235 -2.5598748 0.49538592
2.5423465 -2.5614984 0.47890562
2.5438609 -2.5630243 0.46241537
2.5507181 -2.5700228 0.44711921
2.5521302 -2.5714457 0.43057469
2.550755 -2.5700603 0.41357791
2.5574658 -2.5769117 0.39813212
2.5669301 -2.586448 0.38276827
2.565397 -2.5849032 0.36572871
2.5692241 -2.5888498 0.34971076
2.5730629 -2.5927179 0.33340174
2.5741088 -2.5937717 0.31671295
2.5777836 -2.5975652 0.30058652
2.5814672 -2.6012771 0.28416914
2.5877976 -2.6077471 0.26799443
2.5886209 -2.6085768 0.25146073
2.5894029 -2.6093647 0.23467129
2.5928321 -2.6129117 0.21810801
2.5962443 -2.6163504 0.20175585
2.5968664 -2.6169772 0.18491721
2.6001372 -2.6203649 0.16825256
2.6006441 -2.6208758 0.15164044
2.6038544 -2.6241109 0.13491596
2.6069655 -2.6273379 0.11815299
2.610064 -2.6304607 0.10160454
2.6130683 -2.6335804 0.084765948
2.6160645 -2.6366003 0.067889906
2.6217554 -2.6423357 0.051284101
2.624598 -2.645293 0.034316659
2.6301837 -2.6509225 0.017330946
2.6278975 -2.6532454 0.00052752747
2.6278255 -2.6532652 -0.016530499
2.6249962 -2.6504087 -0.033553045
2.6303606 -2.6558249 -0.050443292
2.6466143 -2.6723294 -0.067940377
2.6903372 -2.7164769 -0.086534031
7.3280892 -7.3995485 -0.28259969
6.6210432 -6.6856074 -0.29835096
2.5123632 -2.5086825 0.78756958
2.5148828 -2.5111983 0.77134365
2.5308692 -2.5271616 0.75915694
2.5359232 -2.5322964 0.74384975
2.538301 -2.5346708 0.72747189
2.5378702 -2.5343292 0.71032
2.5373924 -2.5338519 0.69343269
2.5396073 -2.5360637 0.67704558
2.5417247 -2.5382669 0.66064441
2.5438025 -2.5403419 0.64447445
2.5458589 -2.5423956 0.62804621
2.5450931 -2.5417192 0.61095071
2.5470123 -2.5436361 0.59475964
2.5488636 -2.5455739 0.57831091
2.5507061 -2.5474141 0.56185007
2.555202 -2.551904 0.54620767
2.5568962 -2.5536852 0.52970624
2.5585816 -2.5553684 0.51319379
2.5601895 -2.5569744 0.49691734
2.5589843 -2.5558598 0.4798702
2.5605085 -2.5573823 0.46334451
2.564656 -2.561614 0.44753465
2.5660758 -2.5630319 0.4309724
2.5646958 -2.5616539 0.41395792
2.5741849 -2.5712214 0.39892024
2.583693 -2.5807185 0.38352066
2.5821557 -2.5791829 0.36644563
2.583251 -2.5803671 0.35001987
2.5898597 -2.5869684 0.33404797
2.5909123 -2.5880198 0.3173236
2.5946054 -2.5917993 0.30116206
2.5955517 -2.5927446 0.28440711
2.5991547 -2.5964344 0.26793033
2.6027384 -2.6000142 0.25166318
2.6035247 -2.6007996 0.23485592
2.6069696 -2.604332 0.21827474
2.6076381 -2.6049998 0.20169152
2.6110227 -2.608381 0.18504848
2.6143086 -2.6117547 0.16836591
2.6175792 -2.6150222 0.15189646
2.6208045 -2.6182442 0.13513623
2.6239302 -2.6214583 0.11833753
2.6270428 -2.624568 0.10175385
2.6300609 -2.6276751 0.08487951
2.6358337 -2.6334426 0.068039045
2.6387868 -2.6363928 0.051326625
2.6416423 -2.639338 0.034323428
2.6472521 -2.644943 0.017301891
2.6477323 -2.6500437 0.00046380123
2.6476598 -2.650064 -0.016647752
2.6475785 -2.6499825 -0.033758961
2.6529655 -2.6553745 -0.050719645
2.6610091 -2.6635182 -0.06807664
2.6690419 -2.6715584 -0.085539259
7.3768611 -7.3840747 -0.28341761
6.6667042 -6.673223 -0.29925838
2.533725 -2.5080302 0.7567237
2.54423 -2.5185165 0.74305588
2.5493364 -2.5235713 0.72747189
2.5516274 -2.5259273 0.71107888
2.5538754 -2.5281527 0.69491601
2.5533767 -2.5276589 0.67776972
2.5582364 -2.5325582 0.66205752
2.5603275 -2.5346284 0.64585304
2.5651321 -2.5393846 0.63006133
2.5643694 -2.5387182 0.61291313
2.5663035 -2.540633 0.59666997
2.5654283 -2.5398552 0.57954925
2.5672827 -2.5416913 0.56305319
2.5690572 -2.543448 0.54679185
2.570761 -2.5452235 0.53027278
2.5752037 -2.5496223 0.51429158
2.5768223 -2.5512245 0.49798027
2.5783672 -2.5528433 0.48141155
2.5771496 -2.5516379 0.46433669
2.5813186 -2.5558548 0.44849196
2.5827475 -2.5572696 0.43189424
2.5841224 -2.5586309 0.41528755
2.5908978 -2.565429 0.39977172
2.60045 -2.5748873 0.38433668
2.5989087 -2.5733612 0.36722612
2.6000116 -2.574543 0.35076538
2.6038871 -2.5783806 0.33440298
2.6049454 -2.5794284 0.31766081
2.6086559 -2.5831931 0.30148178
2.6096072 -2.5841351 0.28470901
2.6132274 -2.58781 0.26821443
2.6140583 -2.5886331 0.25166318
2.6176178 -2.5921578 0.23510471
2.621079 -2.5956759 0.21850573
2.6217511 -2.5963416 0.20190495
2.6251512 -2.5997088 0.18524408
2.6284523 -2.6030686 0.16854371
2.6317377 -2.6063223 0.15205668
2.6349773 -2.6095307 0.13527863
2.6381176 -2.6127317 0.11846209
2.6412439 -2.615828 0.10186085
2.6470506 -2.6216705 0.085057832
2.652849 -2.6274133 0.068181686
2.6558154 -2.6303511 0.051434115
2.6586838 -2.6332841 0.034395233
2.6643183 -2.6388648 0.017338011
2.6648159 -2.6439683 0.00046476847
2.6675165 -2.64674 -0.016699832
2.6674345 -2.6466587 -0.033864565
2.6728444 -2.6520267 -0.050877977
2.6809225 -2.6601346 -0.068288498
2.6834455 -2.6626379 -0.08562772
7.4006944 -7.3435655 -0.28309953
2.5528452 -2.5049982 0.75903207
2.5606732 -2.5127673 0.7445184
2.5685389 -2.5204856 0.72967541
2.570847 -2.5228386 0.71322978
2.5731115 -2.5250609 0.69701505
2.5753572 -2.5272646 0.6805402
2.5775049 -2.5294607 0.66405118
2.5796113 -2.5315278 0.64779472
2.5844429 -2.5362692 0.63195008
2.5836833 -2.5356123 0.61474913
2.5828807 -2.5348246 0.59781724
2.5820057 -2.5340545 0.5806613
2.5838718 -2.535886 0.56412989
2.5856574 -2.5376382 0.54783374
2.5901306 -2.5421171 0.53184569
2.5918372 -2.5437922 0.51526254
2.5934658 -2.5453906 0.49891636
2.5950208 -2.5470057 0.48231217
2.596566 -2.5485222 0.46569794
2.6007574 -2.5527253 0.44980067
2.6021967 -2.5541379 0.43314978
2.6035814 -2.5554972 0.41648984
2.607619 -2.5595496 0.40049565
2.6144423 -2.566247 0.38461679
2.612895 -2.5647283 0.36748859
2.6140039 -2.5659063 0.35101029
2.617897 -2.5697277 0.33462992
2.6189606 -2.5707717 0.31786993
2.6226881 -2.5745206 0.3016732
2.6236441 -2.575459 0.28488261
2.6272807 -2.5791187 0.26837006
2.6281159 -2.5799387 0.25180122
2.6289091 -2.5807176 0.23497611
2.6351678 -2.5869517 0.2186078
2.6386266 -2.5903473 0.20220274
2.6420422 -2.5937004 0.18550606
2.6481433 -2.5997806 0.16894753
2.651444 -2.6030209 0.15240768
2.6546988 -2.6062162 0.13557597
2.6578536 -2.6094046 0.11870577
2.6637805 -2.6152234 0.10215853
2.6696134 -2.6210415 0.085283875
2.6754372 -2.6267595 0.068336084
2.6812038 -2.632421 0.051571678
2.681298 -2.6326056 0.034407679
2.6841695 -2.6354249 0.017260885
2.6846819 -2.6405332 0.00033477426
2.6873937 -2.6432927 -0.016883491
2.6873107 -2.6432109 -0.034101751
2.6927433 -2.6485546 -0.051168155
2.6980712 -2.6538875 -0.068561845
2.700604 -2.6563787 -0.085936867
7.3769841 -7.2564316 -0.28134015
2.5664899 -2.4964998 0.75984299
2.577096 -2.5069041 0.74610585
2.5850003 -2.5145931 0.73122793
2.5873237 -2.5169411 0.71474731
2.5896027 -2.5191581 0.69849807
2.5918627 -2.5213568 0.68198818
2.5940247 -2.5235479 0.66546404
2.5989006 -2.5282915 0.64986211
2.6010013 -2.5303349 0.63329321
2.6002431 -2.5296857 0.6160571
2.6022036 -2.5315931 0.59972721
2.6040959 -2.5335224 0.58313745
2.6059778 -2.5353534 0.56653559
2.6077785 -2.5371053 0.55016989
2.6095083 -2.538877 0.5335449
2.611228 -2.54055 0.51690876
2.6128685 -2.5421462 0.50051033
2.6116602 -2.5410593 0.48333946
2.6159923 -2.5452743 0.4671858
2.6202068 -2.5494637 0.45123622
2.6216567 -2.5508745 0.43453217
2.6202703 -2.5495255 0.41737598
2.6271112 -2.5562711 0.40177247
2.6339679 -2.5629427 0.38584039
2.6324179 -2.5614345 0.36865893
2.6307485 -2.5598998 0.35175553
2.6346607 -2.5637064 0.33533964
2.635731 -2.564748 0.31854412
2.639477 -2.5684826 0.30231234
2.640439 -2.5694189 0.28548616
2.6440933 -2.5730648 0.26893803
2.6449337 -2.5738826 0.25233412
2.648526 -2.5773785 0.23572208
2.6520197 -2.5808682 0.21906948
2.6554945 -2.58425 0.20262933
2.6617219 -2.5903103 0.1860925
2.6650546 -2.5936441 0.16930284
2.6683707 -2.5968714 0.15272786
2.6716402 -2.6000533 0.13586049
2.6748097 -2.6032288 0.11895463
2.6779644 -2.6062992 0.10226539
2.6866214 -2.6148157 0.085461922
2.689672 -2.6177847 0.068407267
2.6982625 -2.6261456 0.051678896
2.6983576 -2.6263299 0.034479212
2.7040408 -2.6318614 0.017314658
2.7017715 -2.6342478 0.00033546882
2.7044952 -2.6369956 -0.016918482
2.7016149 -2.6341872 -0.034137089
2.7070708 -2.6395068 -0.051221069
2.7124214 -2.6448164 -0.068632595
2.720557 -2.6527491 -0.086202651
7.2967482 -7.1151304 -0.2770935
2.5911214 -2.4985487 0.76383483
2.6045384 -2.5115743 0.75080508
2.609736 -2.5165861 0.73504591
2.6093233 -2.5162761 0.71771908
2.6116216 -2.5184925 0.70140076
2.6139007 -2.5206902 0.68482071
2.616081 -2.522881 0.66822636
2.6182189 -2.5249426 0.65186608
2.6203349 -2.5269833 0.63524437
2.61958 -2.5263436 0.61795551
2.6215549 -2.5282483 0.60157359
2.6234612 -2.5301752 0.58493096
2.6225791 -2.5293243 0.56767482
2.6243911 -2.5310719 0.55127436
2.626132 -2.5328393 0.53461403
2.6250784 -2.5318234 0.51739383
2.6267276 -2.5334139 0.50097799
2.6255159 -2.5323336 0.48378944
2.629868 -2.5365312 0.46761796
2.6341019 -2.5407035 0.45165086
2.6355593 -2.5421093 0.43492907
2.6341684 -2.5407677 0.41775519
2.6382451 -2.5447886 0.40170851
2.6451304 -2.5514302 0.38577625
2.6435738 -2.5499287 0.36859483
2.6474948 -2.5537999 0.35243657
2.6486259 -2.5548911 0.33563027
2.6497016 -2.5559287 0.31881693
2.6534646 -2.559648 0.30256754
2.6572347 -2.5632846 0.28602529
2.6609063 -2.5669162 0.26944149
2.6645567 -2.5704377 0.25306889
2.6653609 -2.5712135 0.23615474
2.6716774 -2.5773969 0.21969722
2.675169 -2.5807652 0.20320433
2.6814246 -2.5868001 0.18661389
2.6847732 -2.590121 0.16977069
2.6909137 -2.596045 0.15330297
2.6941988 -2.5992143 0.13636421
2.6973834 -2.6023777 0.11938693
2.7033632 -2.6081467 0.10273413
2.7092478 -2.6139154 0.085752308
2.7151229 -2.6195836 0.068697333
2.7209396 -2.6251957 0.051827345
2.7266579 -2.6308045 0.034627687
2.7295542 -2.6335993 0.017338078
2.7244747 -2.6332929 0.0002707263
2.7215927 -2.6305993 -0.017019536
2.7186997 -2.6278031 -0.034273759
2.7241781 -2.6330984 -0.051393025
2.7295513 -2.6383841 -0.068840362
2.7349126 -2.6435661 -0.086357631
2.7485971 -2.6568866 -0.10400333
2.585819 -2.4717531 0.79330385
2.5884113 -2.4742312 0.77695572
2.6130476 -2.4977806 0.76707828
2.621002 -2.5054717 0.75239241
2.6234591 -2.5078204 0.73582208
2.6258175 -2.5101626 0.71923643
2.6253579 -2.5097234 0.70214224
2.6276488 -2.5119135 0.68554461
2.6326182 -2.5167518 0.66963911
2.6347697 -2.5188084 0.65324426
2.636899 -2.5208442 0.63658738
2.6361456 -2.5202119 0.61926335
2.6353474 -2.5194488 0.60221016
2.637264 -2.5213695 0.58554995
2.6391699 -2.5231915 0.56887752
2.6409934 -2.5249348 0.55244231
2.6427457 -2.5266984 0.53574663
2.6416917 -2.5256906 0.51849115
2.6433511 -2.5272772 0.50204051
2.642138 -2.5262058 0.48481661
2.6437111 -2.5277097 0.46811384
2.6479647 -2.5318651 0.4521293
2.6494298 -2.5332661 0.43538979
2.6452293 -2.5292499 0.41775519
2.6521301 -2.5359366 0.40213403
2.6590457 -2.5425491 0.38618404
2.6602931 -2.5437419 0.36937493
2.661423 -2.5449111 0.35280913
2.6653717 -2.548687 0.33633983
2.6692669 -2.5524116 0.31982797
2.6702354 -2.553427 0.30320656
2.6740234 -2.5570493 0.28662872
2.6777127 -2.5606668 0.27000934
2.6841967 -2.5668674 0.25386804
2.6850069 -2.567642 0.23690049
2.6913524 -2.5738001 0.22038954
2.6948607 -2.5771554 0.20384401
2.7011447 -2.5831647 0.18720011
2.7045097 -2.586473 0.17030343
2.7078567 -2.589674 0.15362301
2.7139781 -2.5955281 0.13679078
2.7199991 -2.6013775 0.11988438
2.7231834 -2.6044228 0.10305451
2.7262719 -2.6074677 0.085930213
2.7293496 -2.6104114 0.068768449
2.7380137 -2.6186979 0.051934425
2.7409337 -2.6215823 0.034663383
2.7466652 -2.6270642 0.017373791
2.7415798 -2.626785 0.00027128452
2.7386858 -2.624104 -0.017054664
2.738601 -2.6240227 -0.034379978
2.7412817 -2.6265914 -0.051498987
2.7494974 -2.6345553 -0.069052838
2.7520607 -2.6370115 -0.086534955
2.7517056 -2.6367633 -0.10368462
2.6267145 -2.489002 0.76776284
2.637481 -2.4992914 0.7538529
2.6371739 -2.4990005 0.73647147
2.6395447 -2.5013344 0.71986818
2.6390853 -2.5008991 0.70275676
2.6441741 -2.5057216 0.68686527
2.6491687 -2.5105424 0.67092448
2.6513331 -2.5125935 0.65449488
2.6534755 -2.5146236 0.63780278
2.6499279 -2.5113497 0.61978984
2.649128 -2.5105915 0.60271937
2.6510549 -2.5125053 0.58604145
2.6529701 -2.5143206 0.56935126
2.6548028 -2.5160575 0.55289865
2.6565642 -2.5178149 0.5361852
2.658314 -2.5194733 0.51946062
2.6571748 -2.5183935 0.50244397
2.6559584 -2.5173287 0.48520243
2.6575394 -2.518827 0.46848193
2.6618121 -2.5229652 0.45247972
2.6632845 -2.5243607 0.43572244
2.6618843 -2.5230336 0.41851318
2.6688166 -2.5296924 0.40285677
2.6757634 -2.5362773 0.38687095
2.6770179 -2.5374665 0.37002626
2.6809771 -2.5413079 0.35379785
2.6849453 -2.5450695 0.33727506
2.6888597 -2.54878 0.32070971
2.6898353 -2.549794 0.30403569
2.6936417 -2.5534022 0.2874043
2.6973493 -2.5570061 0.27073136
2.7038627 -2.5631804 0.25453717
2.7046783 -2.5639536 0.23751615
2.7082226 -2.5674033 0.22072083
2.7117465 -2.570744 0.20414004
2.7180576 -2.5767269 0.1874602
2.7242694 -2.582706 0.17070515
2.7276318 -2.5858936 0.15397188
2.7309465 -2.5890362 0.13694382
2.7369936 -2.5948596 0.12000145
2.7401915 -2.5978916 0.10313629
2.7432933 -2.6009233 0.085976169
2.7492182 -2.6065407 0.068849556
2.755084 -2.612102 0.051908985
2.7580163 -2.6149735 0.034602113
2.7637715 -2.6204302 0.017276559
2.761512 -2.6228681 0.0001391768
2.7614379 -2.6228893 -0.017257864
2.7585199 -2.6201177 -0.034619
2.7640431 -2.6253638 -0.051843986
2.7666285 -2.6279113 -0.069327675
2.7692015 -2.6303554 -0.086845607
2.7716753 -2.632797 -0.10413677
6.7909627 -6.4506931 -0.29797006
2.6431201 -2.4827495 0.76938432
2.6511488 -2.4903781 0.75464642
2.6508431 -2.4900911 0.73724753
2.6532266 -2.4924171 0.72062677
2.6527677 -2.491986 0.70349807
2.6578798 -2.4967885 0.68758905
2.6628978 -2.5015898 0.67163068
2.6650736 -2.5036337 0.65518379
2.667227 -2.5056567 0.63847417
2.6664741 -2.5050371 0.62109745
2.6656752 -2.5042863 0.60399228
2.6648033 -2.5035551 0.58666027
2.6667285 -2.5053637 0.56995249
2.6685708 -2.5070944 0.55348247
2.6703417 -2.508846 0.53675139
2.6721008 -2.5104985 0.52000916
2.673779 -2.5120754 0.50350618
2.6725612 -2.511019 0.48622933
2.6741521 -2.5125136 0.46947342
2.6784461 -2.5166361 0.45343634
2.6799276 -2.518028 0.43664363
2.6785247 -2.51671 0.4193989
2.6854885 -2.5233414 0.40370756
2.695298 -2.5325587 0.38809395
2.6937294 -2.5310845 0.37080607
2.6948738 -2.5322485 0.35417026
2.7016945 -2.5386577 0.33798438
2.7056274 -2.5423534 0.32138348
2.7094467 -2.5460312 0.30499378
2.7132719 -2.5496256 0.28830904
2.7169979 -2.5532162 0.27158272
2.7207007 -2.5566959 0.25506967
2.7243624 -2.5601368 0.23826151
2.7279239 -2.5635731 0.22141275
2.7286222 -2.5642295 0.20456621
2.7378037 -2.5728579 0.18804601
2.7440434 -2.5788116 0.1712375
2.7531095 -2.5873318 0.15477133
2.7535958 -2.5877891 0.13751204
2.7568247 -2.590914 0.12037413
2.7600369 -2.5939329 0.10345625
2.7631528 -2.5969522 0.086242624
2.766257 -2.5998697 0.068991512
2.7721474 -2.6054058 0.052015793
2.7750926 -2.6082649 0.03467324
2.7780254 -2.6110213 0.017294278
2.7757742 -2.6134715 0.00013931954
2.781388 -2.6188488 -0.017310966
2.7784576 -2.6160896 -0.034725633
2.7840033 -2.6213109 -0.052003343
2.7865989 -2.6238468 -0.06954056
2.7920249 -2.6289558 -0.087200798
2.7916651 -2.6287091 -0.10445588
2.8111858 -2.6470902 -0.12283967
2.6319473 -2.450726 0.7972815
2.6345851 -2.4531822 0.78084594
2.6539476 -2.4712114 0.76925772
2.6676073 -2.4840176 0.75610626
2.6701071 -2.4863453 0.73944831
2.6697035 -2.4860566 0.72201651
2.6692474 -2.4856317 0.70485336
2.6743848 -2.4904158 0.68890905
2.6794281 -2.4951994 0.67291534
2.6816168 -2.4972377 0.65643382
2.6809669 -2.4966326 0.6390177
2.6802132 -2.4960179 0.6216234
2.6794126 -2.4952724 0.60450089
2.6785393 -2.4945464 0.58715135
2.680474 -2.4963481 0.57042587
2.6851516 -2.5007045 0.55452204
2.6869335 -2.5024517 0.53775561
2.6858728 -2.5014637 0.52042961
2.6875594 -2.5030344 0.50390911
2.6863382 -2.5019848 0.48661461
2.6907723 -2.5061145 0.47033656
2.6950867 -2.5102208 0.4542644
2.6965771 -2.5116088 0.43743616
2.6980112 -2.5129445 0.42059883
2.7050076 -2.5195491 0.40485474
2.7148609 -2.5287271 0.38918743
2.7132893 -2.5272632 0.37184638
2.714442 -2.5284255 0.35515803
2.7184474 -2.5321562 0.33856401
2.7252462 -2.5384889 0.32226411
2.729084 -2.5421529 0.30582169
2.7329276 -2.545733 0.28908342
2.7366714 -2.5493097 0.27230352
2.7432435 -2.5554318 0.2560038
2.746923 -2.5588593 0.23912425
2.7505021 -2.5622833 0.22220409
2.7483518 -2.5602801 0.20507437
2.7547178 -2.5662105 0.18830512
2.7638392 -2.5747979 0.171638
2.770088 -2.5806191 0.15495895
2.7734332 -2.5837355 0.13780591
2.7766764 -2.5868475 0.12061433
2.7799025 -2.589853 0.1036436
2.7858894 -2.5955212 0.086464986
2.7890067 -2.5984259 0.069142371
2.792064 -2.601274 0.052042801
2.7950213 -2.6041205 0.034646578
2.8008239 -2.6095266 0.017231531
2.798574 -2.6119964 6.263755e-06
2.7984991 -2.6120179 -0.017479992
2.7955561 -2.609271 -0.034930203
2.7982683 -2.6118023 -0.052190077
2.8037295 -2.6169913 -0.069816351
2.8063219 -2.619411 -0.0874236
2.8088148 -2.6218295 -0.10480274
2.822706 -2.6347961 -0.12297446
2.6454179 -2.4418054 0.798127
2.6480694 -2.4442527 0.78167403
2.6731286 -2.4673831 0.77168953
2.686852 -2.4801373 0.75848645
2.6893699 -2.4824615 0.74177605
2.6889725 -2.4821815 0.7242918
2.6885219 -2.4817655 0.70707685
2.6936877 -2.4865341 0.69107997
2.6959357 -2.4886963 0.67432755
2.698138 -2.4907293 0.6578114
2.6974902 -2.4901314 0.64036012
2.6995678 -2.4921365 0.62358433
2.6959383 -2.488786 0.60577357
2.6979001 -2.490684 0.5890075
2.6998487 -2.4924831 0.57222909
2.7017133 -2.4942045 0.55568945
2.7063465 -2.4985693 0.5394538
2.705287 -2.4975913 0.52207476
2.7069857 -2.4991593 0.5055021
2.7057652 -2.4981201 0.48815453
2.7102222 -2.5022349 0.47182339
2.7145593 -2.5063272 0.45569891
2.7189105 -2.5103445 0.43927801
2.7175047 -2.5090466 0.42192703
2.7245343 -2.515625 0.40613055
2.7344317 -2.5247636 0.39040998
2.7300022 -2.5206735 0.37262595
2.7311623 -2.5218332 0.35590261
2.7351863 -2.5255487 0.33927304
2.7420149 -2.5318539 0.32293758
2.7458708 -2.5355031 0.30646014
2.749732 -2.5390685 0.28968629
2.7563555 -2.5452738 0.27315447
2.7629571 -2.5513697 0.25680214
2.7695181 -2.5574281 0.24011749
2.7702503 -2.5581939 0.22289559
2.7709591 -2.5588486 0.20592618
2.7744875 -2.5621068 0.18889053
2.783648 -2.5706561 0.17216992
2.7927911 -2.5790997 0.15559795
2.7961519 -2.5822034 0.1383736
2.7994103 -2.5853028 0.12111069
2.8026509 -2.5882957 0.10406968
2.8086636 -2.5939393 0.086819716
2.8117948 -2.5968311 0.069425739
2.8148651 -2.5996668 0.052255873
2.8178353 -2.6025009 0.034788281
2.8207922 -2.6052318 0.017284282
2.8156788 -2.6050661 6.276538e-06
2.815604 -2.605088 -0.017515665
2.8126488 -2.6023538 -0.035001561
2.8153718 -2.6048732 -0.052296586
2.8179882 -2.6073854 -0.069887452
2.8234575 -2.6124458 -0.087601468
2.8230939 -2.6122007 -0.10490925
2.8370411 -2.6251063 -0.1230988
2.8738472 -2.6591628 -0.14260152
2.6588709 -2.4328232 0.79890954
2.6615355 -2.4352612 0.78243911
2.6866982 -2.4582846 0.77243656
2.7004797 -2.4709811 0.75921595
2.7058346 -2.4758809 0.7432639
2.7054408 -2.4756074 0.72574461
2.704993 -2.4751976 0.7084952
2.7073524 -2.4773567 0.69173962
2.7096121 -2.479511 0.67496955
2.7146618 -2.4841321 0.65912479
2.7140157 -2.4835408 0.6416384
2.7161064 -2.4855409 0.62482738
2.7124665 -2.4822102 0.60698199
2.7144401 -2.4841032 0.59018064
2.7164006 -2.4858973 0.573367
2.7182765 -2.4876139 0.55679256
2.7229321 -2.491962 0.5405215
2.724725 -2.4936028 0.52365553
2.7235808 -2.4925556 0.50649965
2.7252157 -2.4941392 0.48962998
2.7296953 -2.498239 0.47324565
2.7340548 -2.5023167 0.45706874
2.7384279 -2.506319 0.44059458
2.737021 -2.5050313 0.42319047
2.7440832 -2.5115829 0.40734142
2.7540243 -2.5206819 0.39156741
2.7524478 -2.5192389 0.37411991
2.7536178 -2.5203981 0.3573266
2.7547932 -2.5214739 0.34027141
2.7616525 -2.5277522 0.32388249
2.765527 -2.5313873 0.30735239
2.7694068 -2.5349386 0.29052508
2.7760601 -2.5411177 0.27393973
2.7826905 -2.5471869 0.25753465
2.7864048 -2.5505867 0.24054819
2.7871416 -2.5513508 0.22329065
2.7907317 -2.554637 0.20649901
2.794276 -2.5578816 0.18940982
2.800597 -2.5637577 0.17245828
2.8040199 -2.566891 0.1555316
2.8102734 -2.5726156 0.13844901
2.8135455 -2.5757012 0.1211682
2.8167992 -2.57868 0.10410955
2.8228364 -2.5842974 0.086841598
2.8259804 -2.5871756 0.069429711
2.8290632 -2.589998 0.052242197
2.8320453 -2.5928192 0.034756694
2.8350141 -2.5955369 0.017234778
2.8298976 -2.5953958 -6.0734987e-05
2.8269439 -2.5927777 -0.017582614
2.8239765 -2.5900562 -0.035068441
2.82671 -2.5925634 -0.05236353
2.8322155 -2.5977039 -0.070025623
2.8377063 -2.6027398 -0.08775761
2.8373411 -2.6024961 -0.10508295
2.8484669 -2.6127009 -0.12316626
2.8739135 -2.6360414 -0.14210089
2.6694608 -2.4211986 0.79890954
2.6721361 -2.423625 0.78243911
2.7030599 -2.4516728 0.77405763
2.7197349 -2.4668834 0.7615959
2.7222831 -2.4691949 0.74481559
2.7190552 -2.4663537 0.72650295
2.7186081 -2.4659481 0.70923632
2.7238226 -2.4706779 0.69318676
2.7260964 -2.4728272 0.67638165
2.7311709 -2.4774301 0.66050225
2.7305269 -2.476846 0.64298075
2.7326305 -2.4788411 0.62613457
2.7318351 -2.4781196 0.60889077
2.7338233 -2.48001 0.59203655
2.7386565 -2.4843946 0.57577103
2.7405477 -2.48611 0.55912715
2.7423673 -2.487848 0.54221946
2.744173 -2.4894862 0.5253005
2.7458959 -2.4910491 0.5086233
2.7475443 -2.4926322 0.49168295
2.7520487 -2.4967186 0.47522783
2.7564323 -2.5007832 0.45898116
2.7579563 -2.5021658 0.44197577
2.7565484 -2.5008886 0.4245185
2.7636433 -2.5074131 0.40861702
2.770751 -2.5138621 0.39238232
2.7720497 -2.5150402 0.37528905
2.7732282 -2.5161979 0.35844323
2.777293 -2.5198858 0.3416892
2.781302 -2.5235233 0.32489252
2.7851956 -2.5271447 0.30830988
2.789094 -2.5306818 0.29142922
2.7986622 -2.5394526 0.27507406
2.8024366 -2.5428774 0.25833282
2.8061683 -2.5462635 0.24129292
2.8097985 -2.5496469 0.22421238
2.8105173 -2.5502989 0.20713767
2.8140779 -2.55353 0.18999502
2.820426 -2.5593803 0.17299001
2.8238642 -2.5625002 0.15601066
2.8272533 -2.5655756 0.13873273
2.8305397 -2.5686479 0.12141624
2.8338072 -2.5716131 0.10432245
2.8369777 -2.5745804 0.086930215
2.8401344 -2.577445 0.069500484
2.8432295 -2.5802541 0.052295394
2.8462243 -2.5830624 0.034792051
2.8492048 -2.5857675 0.017252294
2.8440855 -2.5856512 -6.079677e-05
2.8440106 -2.5856736 -0.017618423
2.8410311 -2.5829649 -0.035139933
2.8466654 -2.5880873 -0.052523501
2.8493028 -2.5905759 -0.070167951
2.8548148 -2.5955875 -0.087935619
2.857337 -2.5979719 -0.10540268
2.8598397 -2.6002474 -0.12316626
2.8767233 -2.6155984 -0.14167416
2.7194347 -2.444983 0.77555102
2.7333367 -2.4575682 0.76226097
2.7387443 -2.46243 0.74623871
2.738358 -2.4621692 0.7286495
2.7379165 -2.4617722 0.71133107
2.740304 -2.4639189 0.69450527
2.7454484 -2.468631 0.67837083
2.7476902 -2.4706469 0.66175079
2.7499094 -2.4726422 0.64486516
2.7520278 -2.4746339 0.62796611
2.754101 -2.4764984 0.61130649
2.7561054 -2.4783876 0.59438175
2.7580955 -2.4801772 0.57744461
2.7599998 -2.4818895 0.56074852
2.7618322 -2.4836245 0.54378778
2.7636502 -2.4852595 0.52681577
2.7682626 -2.4894071 0.51061708
2.767045 -2.4883997 0.49309275
2.7686911 -2.4898798 0.47608894
2.7730951 -2.493928 0.45980719
2.7775121 -2.4979002 0.44322655
2.7789884 -2.499228 0.4261587
2.7832296 -2.50313 0.40976197
2.7903693 -2.5095513 0.39347371
2.7916765 -2.5107269 0.3763271
2.7928636 -2.5118828 0.35942876
2.7969475 -2.5155559 0.34262124
2.7980821 -2.5165761 0.32543451
2.8048878 -2.5227857 0.30913568
2.808804 -2.5263081 0.29220146
2.8155162 -2.5324342 0.27550903
2.8193071 -2.5358438 0.25873253
2.8201563 -2.5366077 0.24140877
2.8238018 -2.5399756 0.22431023
2.8245234 -2.5406249 0.20721795
2.8280983 -2.5438404 0.19005731
2.8344724 -2.5496633 0.17303418
2.8379242 -2.5527682 0.15603709
2.8413267 -2.555829 0.13874118
2.8446264 -2.5588868 0.1214067
2.8479068 -2.5618377 0.10429519
2.85109 -2.5647912 0.086884961
2.8542588 -2.567642 0.06943725
2.8573661 -2.5704372 0.052214436
2.8574686 -2.5706196 0.034657884
2.8633647 -2.5759237 0.017135365
2.8582423 -2.5758319 -0.0001951671
2.8581667 -2.5758543 -0.017770635
2.8580766 -2.5757732 -0.035345733
2.8637323 -2.5808704 -0.052764717
2.8692808 -2.5859616 -0.070516273
2.8719127 -2.5883334 -0.088248581
2.8715434 -2.5880914 -0.1056442
2.8740551 -2.5903552 -0.12342573
2.8881049 -2.603018 -0.14180988
2.9281445 -2.6391978 -0.16154251
2.7357826 -2.4381788 0.77717185
2.7497447 -2.4507079 0.76384735
2.7551787 -2.4555511 0.74779016
2.7519357 -2.4527471 0.72940773
2.7543581 -2.454906 0.71281302
2.7567601 -2.4570467 0.69595218
2.7647977 -2.4642973 0.68048859
2.7641852 -2.4637513 0.66312802
2.7664175 -2.4657409 0.64620727
2.768549 -2.4677277 0.629273
2.7706349 -2.4695866 0.61257869
2.7726517 -2.4714711 0.59561872
2.7746537 -2.4732556 0.57864636
2.7794523 -2.4775333 0.56249899
2.7812982 -2.4792657 0.54548538
2.7860162 -2.4834714 0.52900851
2.7877648 -2.4850302 0.51220942
2.7865484 -2.4840329 0.49463207
2.7882059 -2.4855103 0.47757518
2.7926321 -2.4895437 0.4612411
2.7970712 -2.4935009 0.44460732
2.801455 -2.4974091 0.42792884
2.8028204 -2.498714 0.41103715
2.8070927 -2.5025227 0.39428833
2.8113089 -2.5062816 0.37749583
2.815407 -2.5100231 0.36091706
2.8195119 -2.5136828 0.34403849
2.8206556 -2.5147026 0.32678065
2.8274925 -2.5208864 0.31041178
2.8285215 -2.5218036 0.29310519
2.8352633 -2.5279033 0.27635938
2.8390715 -2.5312986 0.25953028
2.8428366 -2.5346556 0.2424012
2.8464997 -2.5380108 0.22523144
2.8472273 -2.5386596 0.20806894
2.8479068 -2.5392656 0.1906421
2.8513954 -2.5424652 0.17338839
2.854862 -2.5455563 0.15635619
2.858279 -2.5486031 0.13902462
2.8615925 -2.5516474 0.12165447
2.8648868 -2.5545845 0.10450782
2.8651686 -2.5549257 0.086973436
2.86835 -2.5577629 0.069507889
2.8685546 -2.557945 0.052214436
2.8715732 -2.5607269 0.034693103
2.8774924 -2.5660052 0.017152743
2.8781936 -2.5711432 -0.00019576152
2.881031 -2.5737684 -0.017842801
2.8780272 -2.571085 -0.035453387
2.8837049 -2.5761569 -0.052925095
2.8863621 -2.5786214 -0.070658877
2.8919158 -2.5835831 -0.088516004
2.8915446 -2.5833421 -0.10596433
2.8940649 -2.5855937 -0.12379937
2.9023461 -2.5929923 -0.14195226
2.9338109 -2.6211956 -0.16122262
2.7152467 -2.3987014 0.80294687
2.7179673 -2.4011047 0.78638911
2.7521329 -2.4312873 0.77872854
2.769021 -2.4462926 0.76616246
2.7744842 -2.4511189 0.75005269
2.7741082 -2.4508731 0.73237598
2.7765498 -2.4530303 0.71571225
2.778971 -2.4551692 0.69878119
2.7841704 -2.4598494 0.68254143
2.7864437 -2.4618578 0.6658175
2.7886939 -2.463846 0.64882642
2.7879567 -2.4632812 0.63116843
2.7871685 -2.462585 0.61378604
2.7891974 -2.4644642 0.59679079
2.7912111 -2.4662435 0.57978314
2.7960324 -2.4705033 0.5636009
2.8007858 -2.4747903 0.54711771
2.8026292 -2.4764194 0.53003967
2.804388 -2.4779735 0.51320571
2.8031704 -2.4769847 0.49559298
2.8048377 -2.4784579 0.47850066
2.8092844 -2.4824746 0.46213162
2.8166506 -2.4889839 0.44592249
2.8181477 -2.4903066 0.42874825
2.8195212 -2.4916081 0.4118216
2.8238125 -2.4954004 0.39503723
2.8251352 -2.4965692 0.3778196
2.8292508 -2.500294 0.36122325
2.8362875 -2.5065126 0.34468105
2.840354 -2.5101063 0.32772413
2.8443036 -2.513685 0.31098357
2.8453383 -2.5145996 0.29364139
2.849189 -2.5180912 0.27657646
2.8530128 -2.5214708 0.25972974
2.8567932 -2.5248117 0.24258275
2.8575497 -2.525569 0.22516488
2.8612025 -2.5287974 0.20821504
2.8618851 -2.5294008 0.19077037
2.8653879 -2.5325859 0.17349875
2.8688684 -2.5356619 0.15644892
2.8722987 -2.5386941 0.13909942
2.8756261 -2.5417242 0.12171137
2.878933 -2.5446472 0.10454707
2.8792162 -2.5449872 0.086994849
2.8824103 -2.5478103 0.069511384
2.8855419 -2.5505786 0.052253347
2.8885729 -2.5533473 0.034696259
2.8945148 -2.5585997 0.017120074
2.8952339 -2.5637395 -0.00026365294
2.8980825 -2.5663521 -0.017946446
2.8950665 -2.5636814 -0.035592645
2.9007657 -2.5687282 -0.05309964
2.9063566 -2.5737698 -0.070940532
2.911931 -2.5787063 -0.08885131
2.9115572 -2.5784659 -0.10635234
2.9140861 -2.5807054 -0.12424095
2.9194756 -2.5854783 -0.14230508
2.9247651 -2.5902541 -0.16017121
2.7684648 -2.4242907 0.7803492
2.7854238 -2.4392271 0.76774871
2.7937932 -2.4465563 0.7523796
2.7905414 -2.4437947 0.73389226
2.7958827 -2.4484725 0.71793497
2.7983208 -2.4506073 0.70095134
2.8035476 -2.4552712 0.68465894
2.8058369 -2.4572761 0.66788316
2.8081026 -2.4592605 0.65083933
2.8044724 -2.4561679 0.6324752
2.8036857 -2.4554787 0.61505812
2.805727 -2.4573531 0.59802765
2.8077528 -2.4591272 0.58098477
2.8125966 -2.4633696 0.56476778
2.8173723 -2.4676392 0.5482493
2.8221362 -2.4718118 0.53168404
2.820996 -2.4708133 0.51426715
2.8226907 -2.4723845 0.49713209
2.8243694 -2.473855 0.4799867
2.8317549 -2.4804113 0.46404323
2.8362379 -2.4843378 0.44730306
2.8377452 -2.4856582 0.43007565
2.8420496 -2.4895163 0.41352159
2.8463633 -2.4932947 0.39666623
2.8447728 -2.4919016 0.37898812
2.8518331 -2.4981742 0.36271131
2.8559759 -2.5018032 0.34574381
2.8600614 -2.5053821 0.32873353
2.8640299 -2.5089467 0.31194046
2.8650718 -2.5098596 0.29454491
2.8689406 -2.5133371 0.27742657
2.872782 -2.5167024 0.26052725
2.8765793 -2.5200291 0.24332687
2.8773415 -2.5207853 0.22585556
2.8810105 -2.5239999 0.20885308
2.8816981 -2.5246022 0.19135496
2.8822813 -2.525202 0.17385283
2.8857763 -2.528264 0.15676787
2.889221 -2.5312819 0.13938272
2.8925622 -2.5342984 0.12195901
2.8929455 -2.5346346 0.10465332
2.896168 -2.5375471 0.087171666
2.899375 -2.5403569 0.06965252
2.902519 -2.5431118 0.052359335
2.9085 -2.5484419 0.034801718
2.9174032 -2.5562427 0.017189316
2.9181356 -2.5613897 -0.00026471823
2.9180596 -2.561413 -0.018000774
2.9120963 -2.5561786 -0.035664551
2.9178169 -2.5612001 -0.053206697
2.9263647 -2.5687935 -0.071154639
2.9319596 -2.573705 -0.089118935
2.9345183 -2.5760415 -0.10677946
2.9370551 -2.5782685 -0.12473941
2.9424636 -2.5830164 -0.14287487
2.9477718 -2.5877671 -0.16081126
2.7562575 -2.3924332 0.80873591
2.7590187 -2.3948298 0.79205602
2.7963519 -2.4272351 0.78508192
2.8076146 -2.4370968 0.77079141
2.8102441 -2.4393795 0.75380105
2.8127723 -2.4416602 0.73679489
2.8152475 -2.4438088 0.72002751
2.8177018 -2.4459393 0.70299125
2.8229561 -2.4505866 0.68664593
2.8252606 -2.4525874 0.66981816
2.8275416 -2.4545674 0.65272152
2.8268125 -2.454021 0.63495809
2.826031 -2.4533424 0.61747169
2.825176 -2.4526868 0.59975237
2.8272152 -2.454457 0.5826565
2.832083 -2.4586833 0.56638718
2.8339643 -2.460403 0.54924983
2.8387496 -2.4645576 0.53264904
2.8405309 -2.466104 0.515728
2.842237 -2.4676723 0.49853981
2.8439269 -2.4691396 0.48134127
2.8513453 -2.4756677 0.46534511
2.8558497 -2.4795785 0.4485516
2.857367 -2.480896 0.43127096
2.8616922 -2.4847388 0.4146643
2.8660262 -2.4885018 0.3977555
2.8644333 -2.4871187 0.38002419
2.8656521 -2.4882648 0.36295083
2.8727486 -2.494427 0.3463195
2.8768518 -2.4979897 0.32927349
2.8778977 -2.498986 0.31212637
2.8789442 -2.4998946 0.29471299
2.8828287 -2.503356 0.27757668
2.8866851 -2.5067048 0.26065966
2.8875542 -2.5074592 0.24319339
2.8912632 -2.5107687 0.22595212
2.8949466 -2.5139673 0.20893194
2.895637 -2.5145669 0.19141595
2.8991694 -2.5177231 0.17407288
2.9026783 -2.5207703 0.15695263
2.9061368 -2.5237737 0.13953166
2.9094913 -2.5267761 0.12207212
2.9098766 -2.5271108 0.10473128
2.9131119 -2.5300095 0.087213799
2.9163311 -2.5328054 0.069658831
2.922436 -2.5381076 0.052383207
2.9284401 -2.5434117 0.034771785
2.937377 -2.5511734 0.017105442
2.935178 -2.5537605 -0.00040105928
2.9351013 -2.5537839 -0.018172801
2.9320614 -2.5511389 -0.035908073
2.937803 -2.5561347 -0.053503212
2.9463825 -2.5636899 -0.071505077
2.9490516 -2.5660121 -0.089433804
2.9604561 -2.5760264 -0.10745034
2.9659457 -2.5808032 -0.12562433
2.9595921 -2.5752745 -0.1432967
2.7811253 -2.3928208 0.81296128
2.7839112 -2.3952177 0.79619426
2.8098128 -2.4175029 0.78589213
2.8240204 -2.4298127 0.77237743
2.8295674 -2.4345853 0.7561276
2.8321135 -2.436862 0.73906893
2.8346057 -2.4390063 0.72224987
2.8370769 -2.4411328 0.70516098
2.8423586 -2.4457636 0.68876302
2.8446789 -2.4477603 0.6718834
2.8469756 -2.4497366 0.65473408
2.8433318 -2.4466875 0.63626456
2.8454731 -2.44853 0.6193794
2.8475451 -2.4503996 0.6022256
2.8496006 -2.4521682 0.58505923
2.8544948 -2.4563799 0.5687204
2.8563912 -2.4580986 0.55151248
2.8612025 -2.462239 0.53484106
2.8629978 -2.463784 0.51785034
2.8617826 -2.4628253 0.5000785
2.866421 -2.4668169 0.48332208
2.8709359 -2.4707897 0.46677843
2.8754623 -2.474685 0.44993174
2.8769898 -2.4759998 0.43259794
2.8813362 -2.4798279 0.41593888
2.8856907 -2.4835756 0.39897686
2.8840959 -2.482203 0.38119233
2.8882706 -2.4858837 0.36443833
2.8924508 -2.4894814 0.3473818
2.8936231 -2.4904907 0.32994616
2.8946757 -2.4914844 0.31276402
2.8957283 -2.4923904 0.29531506
2.8996298 -2.4958365 0.27814317
2.9035027 -2.4991701 0.26119107
2.9043765 -2.4999225 0.24368919
2.9081018 -2.5032172 0.22641231
2.9118006 -2.5064011 0.20935702
2.9124949 -2.5069988 0.19180541
2.9189997 -2.5126865 0.1746036
2.9225237 -2.5157199 0.15743066
2.9259968 -2.5187094 0.13995621
2.9264066 -2.5191514 0.12231948
2.9327128 -2.52458 0.10515572
2.9330022 -2.5249183 0.087478623
2.9391944 -2.5302486 0.06994056
2.9423633 -2.5329766 0.052541785
2.9513509 -2.5408037 0.034911852
2.9573617 -2.5459781 0.017156964
2.9551673 -2.5485826 -0.00040226729
2.9550905 -2.5486064 -0.018227536
2.9520388 -2.5459743 -0.036016338
2.9578016 -2.5509446 -0.053664204
2.9634557 -2.5559111 -0.071648084
2.9720488 -2.5633225 -0.089791179
8.0072412 -6.9063015 -0.28952786
2.8002555 -2.3880963 0.81543231
2.8030605 -2.3904884 0.79861289
2.82616 -2.410188 0.78744769
2.8404262 -2.4224401 0.77389824
2.8459992 -2.4271932 0.7576133
2.851476 -2.4319499 0.74127758
2.8539851 -2.4340897 0.72440666
2.856473 -2.4362116 0.70726514
2.8559353 -2.4358392 0.68940324
2.8611922 -2.4403229 0.67319453
2.863502 -2.4422929 0.65601003
2.8657095 -2.444262 0.63881183
2.8649349 -2.4436014 0.62122142
2.8670216 -2.4454675 0.60401469
2.8720274 -2.4497373 0.58739603
2.8740091 -2.4514277 0.57040435
2.8788593 -2.4556515 0.55370903
2.8807535 -2.4572673 0.53641891
2.8825607 -2.4588089 0.51937592
2.8813467 -2.45786 0.50155115
2.8830595 -2.4593213 0.48424637
2.8875947 -2.4632769 0.4676677
2.8921409 -2.467155 0.45078552
2.8907247 -2.4659469 0.43297395
2.8950887 -2.4697568 0.41629732
2.8994608 -2.4734867 0.39931747
2.9008181 -2.4746447 0.38190451
2.9020529 -2.4757855 0.36474365
2.9032903 -2.476841 0.34731519
2.9074275 -2.4803708 0.33021578
2.9084852 -2.4813607 0.31301612
2.9095426 -2.4822628 0.29554933
2.9164236 -2.4882214 0.27864274
2.9203126 -2.4915395 0.26165548
2.9241571 -2.4948194 0.24436581
2.9278986 -2.4980998 0.22703542
2.9286463 -2.4987378 0.20971492
2.9323123 -2.5018656 0.19232231
2.9358749 -2.5049937 0.17489004
2.9394131 -2.5080125 0.15768191
2.9428999 -2.5109878 0.14017171
2.9462824 -2.5139627 0.12262292
2.9496427 -2.51683 0.10530027
2.9529047 -2.5197024 0.087675691
2.9561496 -2.5224712 0.070013605
2.9623017 -2.5277207 0.052632395
2.9683523 -2.5329731 0.034913782
2.9773567 -2.540657 0.017140174
2.9692285 -2.5382023 -0.00047084689
2.9661825 -2.5356879 -0.018295646
2.963119 -2.5330691 -0.036084376
2.983748 -2.550704 -0.054001037
9.1484919 -7.8210092 -0.27556968
8.1767902 -6.9905524 -0.29474068
2.8222992 -2.3857033 0.81881231
2.8251264 -2.388093 0.80192316
2.8454044 -2.4052343 0.78987813
2.8626535 -2.4199007 0.77706999
2.868258 -2.4246385 0.76071513
2.8737659 -2.4293804 0.74430943
2.8733656 -2.4290419 0.72662878
2.8758702 -2.4311593 0.70943469
2.8782725 -2.4332764 0.69222575
2.8835585 -2.4377451 0.6759479
2.8829477 -2.4372284 0.65802234
2.8851705 -2.439194 0.64077139
2.8873429 -2.4410307 0.62376481
2.889446 -2.4428952 0.60648763
2.8915315 -2.4446585 0.58919787
2.8935268 -2.4463453 0.5721541
2.8984013 -2.4505532 0.5554058
2.9003084 -2.4521656 0.53806269
2.8991725 -2.4512053 0.52043694
2.9009149 -2.4527652 0.50308961
2.9026394 -2.4542234 0.48573178
2.9071968 -2.4581635 0.4691008
2.9088025 -2.4595215 0.45170549
2.9103479 -2.4608281 0.43430075
2.9117677 -2.4621158 0.41714689
2.9161589 -2.4658289 0.40013158
2.9175241 -2.4669833 0.3826831
2.9187665 -2.4681211 0.36548725
2.9200108 -2.4691732 0.3480233
2.9211943 -2.4701741 0.33055207
2.92523 -2.4736743 0.31365362
2.9262936 -2.4745736 0.29615128
2.9332025 -2.4805038 0.27920908
2.9371078 -2.4838066 0.26218677
2.9439452 -2.4895885 0.24510932
2.9477034 -2.4928548 0.22772549
2.9514341 -2.4960101 0.21056484
2.9521377 -2.4966052 0.19290628
2.9557157 -2.4997194 0.17542054
2.9562886 -2.5002038 0.15800045
2.96277 -2.5056853 0.14059605
2.9661667 -2.508647 0.12299376
2.9725223 -2.5140221 0.10572444
2.9757979 -2.5168817 0.088028513
2.982038 -2.5221593 0.070365429
2.9852316 -2.5248606 0.05284356
2.9883232 -2.5275648 0.035018627
2.994379 -2.5326869 0.017174385
2.9772949 -2.5226972 -0.00047037602
2.9384756 -2.4898932 -0.018057564
9.2123241 -7.8062634 -0.27646381
8.2161512 -6.9623809 -0.29506162
2.8414629 -2.3807232 0.82128263
2.8443089 -2.3831077 0.80434114
2.8675992 -2.4026215 0.79305333
2.8849227 -2.4172218 0.78017598
2.8905587 -2.4219441 0.76375109
2.8931603 -2.4242098 0.74651736
2.892766 -2.4238794 0.72878504
2.8952875 -2.4259923 0.71153826
2.8947613 -2.4256372 0.69357109
2.9000711 -2.4300869 0.67725855
2.9024122 -2.4320483 0.65996855
2.9046502 -2.4340098 0.64266479
2.903883 -2.433367 0.62497038
2.9059982 -2.435226 0.60765797
2.9080954 -2.4369833 0.59033287
2.9101019 -2.4386649 0.57325429
2.9120359 -2.440372 0.5559051
2.9169161 -2.4444618 0.53909212
2.9157796 -2.4435093 0.52143162
2.9145641 -2.4425774 0.50353611
2.9162965 -2.4440291 0.48616052
2.9208724 -2.4479508 0.46951199
2.9254587 -2.4517944 0.45255885
2.9240379 -2.4506037 0.43467641
2.9284406 -2.4543805 0.4179298
2.9358282 -2.4605722 0.40128589
2.9342234 -2.4592273 0.3833949
2.935473 -2.460362 0.36616403
2.9367242 -2.4614105 0.34866449
2.940897 -2.4649079 0.33149388
2.9419672 -2.4658923 0.31422412
2.9460216 -2.4692905 0.29698709
2.9529588 -2.475193 0.27999136
2.9628549 -2.4834878 0.26344749
2.9697213 -2.4892435 0.24628086
2.9705091 -2.4899921 0.22857796
2.9742565 -2.4931333 0.211347
2.9779551 -2.4962337 0.19381176
2.978559 -2.4968283 0.17606005
2.9821272 -2.4998193 0.15872891
2.9886348 -2.5052745 0.1412352
2.9920464 -2.5082233 0.12354368
2.9984272 -2.5135722 0.10618637
3.0017164 -2.5164187 0.088401169
3.0049875 -2.519161 0.070578456
3.0081937 -2.5218489 0.052986208
9.2612457 -7.7785482 -0.27712196
8.2524281 -6.9314847 -0.29546368
2.8606257 -2.375612 0.82381749
2.8634908 -2.3779912 0.80682367
2.8898144 -2.3998518 0.79629362
2.9042699 -2.411942 0.78255457
2.9128799 -2.4190927 0.76685262
2.9125543 -2.4189079 0.74879104
2.9121661 -2.4185855 0.73100692
2.9147046 -2.4206939 0.71370757
2.9171398 -2.4228022 0.69639337
2.9195209 -2.4247799 0.67932338
2.9218774 -2.4267371 0.66198063
2.9211681 -2.4262342 0.64397103
2.9204028 -2.4255984 0.62624192
2.9225304 -2.4274518 0.60889429
2.9246395 -2.4292035 0.59153396
2.9266574 -2.4308796 0.57442063
2.9286027 -2.4325819 0.5570361
2.9305296 -2.4341824 0.53964001
2.9323678 -2.4357092 0.52249253
2.9311516 -2.4347856 0.5045616
2.932894 -2.4362328 0.48715067
2.9374902 -2.4401374 0.47046724
2.9420965 -2.4439638 0.45347866
2.9376884 -2.4403019 0.43511862
2.9450958 -2.446542 0.41877925
2.9525132 -2.452704 0.40209985
2.9509056 -2.4513683 0.38417336
2.9521625 -2.4524996 0.36690751
2.9564133 -2.4560308 0.34972641
2.9606047 -2.4595129 0.33250251
2.9616826 -2.4604957 0.31518018
2.9657547 -2.4638789 0.29788977
2.9727209 -2.4697537 0.28084067
2.9796581 -2.4755173 0.26397863
2.9865515 -2.4812446 0.2467764
2.987344 -2.4819911 0.22903787
2.9911067 -2.4851172 0.21177182
2.9978211 -2.4906957 0.19439553
3.0014307 -2.4937832 0.17676713
3.0080163 -2.4992549 0.15952495
3.0115478 -2.5021892 0.14180072
3.017977 -2.5076199 0.12416139
3.0303895 -2.5179334 0.10692818
3.0427043 -2.5282555 0.089282535
9.319109 -7.7580528 -0.27783781
8.3186054 -6.9253907 -0.29674831
2.8739307 -2.3655496 0.82453245
2.8768086 -2.3679185 0.80752116
2.9032302 -2.3896661 0.79697239
2.9206936 -2.4041259 0.78400826
2.9263842 -2.4088099 0.76749569
2.9290183 -2.4110639 0.7501744
2.9315948 -2.4131849 0.7330963
2.9341495 -2.415288 0.71574426
2.9336348 -2.4149499 0.69767189
2.9360287 -2.4169207 0.68056715
2.9383981 -2.4188712 0.66318917
2.9376907 -2.4183748 0.6451444
2.9369266 -2.4177458 0.62738073
2.9390662 -2.4195933 0.60999775
2.9411867 -2.421339 0.59260201
2.9461975 -2.4254642 0.57603693
2.9481559 -2.4271626 0.55859935
2.9500952 -2.4287591 0.54115015
2.9489572 -2.4278224 0.5234201
2.9477403 -2.4269068 0.50545388
2.949492 -2.428349 0.48800743
2.954108 -2.432236 0.47128895
