# .PCD v0.7 - Point Cloud Data file format
VERSION 0.7
FIELDS x y z
SIZE 4 4 4
TYPE F F F
COUNT 1 1 1
WIDTH 1449
HEIGHT 1
VIEWPOINT 0 0 0 1 0 0 0
POINTS 1449
DATA ascii
5.421783 -2.8260107 -0.36545247
5.0780239 -2.6468322 -0.3685399
4.7758083 -2.4894135 -0.370951
4.5186152 -2.3553505 -0.37436816
4.278728 -2.2304029 -0.37666389
4.0700545 -2.1216261 -0.37908009
3.8648801 -2.0146735 -0.3800227
3.7114942 -1.9347993 -0.38421607
3.5513208 -1.8513011 -0.38581505
3.4084215 -1.7768078 -0.38801903
3.2793303 -1.7095854 -0.39039952
3.1641204 -1.649524 -0.39292675
3.0454938 -1.5876814 -0.39408207
2.9440966 -1.5348861 -0.39633882
2.8531108 -1.4874513 -0.39878252
2.7689886 -1.4436562 -0.40151978
2.6780646 -1.3962516 -0.40236744
2.5906489 -1.3506759 -0.40262139
2.5135274 -1.3105233 -0.40384182
2.4467556 -1.2757093 -0.40598243
2.3766205 -1.2391417 -0.40667477
2.3099074 -1.2044095 -0.40744469
2.2432606 -1.1696591 -0.40753624
2.1835015 -1.1385486 -0.40805969
2.1306093 -1.1109689 -0.40946099
2.0709291 -1.0798497 -0.40897852
2.0181227 -1.0523595 -0.40911743
1.9551337 -1.0195136 -0.40675431
1.91603 -0.99912286 -0.40883419
1.8735586 -0.97701752 -0.40963209
1.8311131 -0.95488316 -0.41014835
1.785293 -0.93102866 -0.40945759
1.7497317 -0.91248351 -0.41055688
1.710786 -0.89217335 -0.41062239
1.6820148 -0.8772065 -0.41278705
9.4731636 -4.8848586 -0.34577918
8.4100018 -4.336637 -0.35024729
7.4926696 -3.8637781 -0.35003829
6.8044796 -3.5088961 -0.35292619
6.3071423 -3.2524319 -0.35962203
5.8445377 -3.0140076 -0.36292064
5.4375281 -2.8041141 -0.36568555
5.0964541 -2.6282234 -0.36904165
4.7866249 -2.4685514 -0.370951
4.5288496 -2.3356121 -0.37436816
4.2884192 -2.2117124 -0.37666389
4.0861931 -2.1074159 -0.37972313
3.8701754 -1.996007 -0.37968341
3.7199011 -1.9185865 -0.38421607
3.5593648 -1.835788 -0.38581505
3.4057794 -1.7565743 -0.38684204
3.2867587 -1.6952604 -0.39039952
3.1678367 -1.6339223 -0.39249921
3.0489433 -1.5725989 -0.39363679
2.9404242 -1.5166913 -0.39494979
2.8561285 -1.4732111 -0.39830205
2.7718179 -1.4297844 -0.4010216
2.6841314 -1.384553 -0.40236744
2.5965176 -1.3393593 -0.40262139
2.5157847 -1.2977706 -0.4032909
2.4522986 -1.2650212 -0.40598243
2.3785725 -1.2269894 -0.40608877
2.3117108 -1.1925498 -0.40684107
2.241488 -1.1563238 -0.40629375
2.1850235 -1.1272436 -0.40742111
2.1354365 -1.1016618 -0.40946099
2.0756209 -1.0708033 -0.40897852
2.0226951 -1.0435438 -0.40911743
1.9663912 -1.0144956 -0.40817156
1.9237822 -0.99251288 -0.40956035
1.8778038 -0.96883333 -0.40963209
1.8318572 -0.94512761 -0.40938741
1.7825347 -0.91971964 -0.40790072
1.7435006 -0.89957947 -0.40816993
1.7112671 -0.88294828 -0.40980926
1.6858263 -0.86985904 -0.41278705
9.5013371 -4.8470235 -0.34621868
8.4566565 -4.3140888 -0.35156891
7.5129285 -3.8328192 -0.35034755
6.8231959 -3.4809432 -0.35323977
6.3282185 -3.2284238 -0.36014143
5.8680501 -2.9937921 -0.36368138
5.4635992 -2.7874472 -0.36672488
5.1148124 -2.6095014 -0.36964363
4.7938733 -2.4458685 -0.3707765
4.5389915 -2.3158259 -0.37445709
4.3014917 -2.1947465 -0.37705219
4.1057463 -2.0948715 -0.38076815
3.8788419 -1.9790982 -0.3797594
3.724766 -1.9005662 -0.38393196
3.5742619 -1.8237712 -0.38663426
3.4203293 -1.7452269 -0.3876937
3.2941182 -1.6809001 -0.39046404
3.1749299 -1.6200814 -0.39256141
3.0592265 -1.5610412 -0.39414203
2.9470079 -1.5038438 -0.39500752
2.8590703 -1.4589697 -0.3978776
2.7745731 -1.4159122 -0.40057781
2.6935897 -1.3745849 -0.40293607
2.6023307 -1.328014 -0.40267238
2.5214171 -1.2867779 -0.40334031
2.4543464 -1.2525491 -0.40546191
2.3838973 -1.2165961 -0.4061355
2.3134484 -1.1806942 -0.40628278
2.2430708 -1.1447762 -0.40571648
2.1899149 -1.1176957 -0.40746403
2.1402168 -1.0923306 -0.40950292
2.0802672 -1.0617332 -0.40901926
2.0272229 -1.0347049 -0.40915716
1.9742143 -1.0076491 -0.40891889
1.9315069 -0.98585099 -0.41032439
1.8854225 -0.96237081 -0.41041246
1.8393698 -0.93886429 -0.41018441
1.7933432 -0.91541052 -0.40949276
1.7474028 -0.89196026 -0.40820417
1.7185 -0.87720686 -0.41065606
1.6929989 -0.86422712 -0.41365078
9.5328522 -4.8107967 -0.34659883
8.4579754 -4.2683549 -0.35084611
7.5435176 -3.8070354 -0.35099605
6.8522539 -3.4581707 -0.35395956
6.3422446 -3.2007811 -0.36014143
5.8915029 -2.9734316 -0.36432734
5.4791908 -2.7653382 -0.36695802
5.1296296 -2.5889153 -0.36989456
4.8079786 -2.4266839 -0.37104499
4.5490532 -2.2959988 -0.37445709
4.3145041 -2.1777117 -0.37735626
4.1113725 -2.0751827 -0.38044655
3.8909144 -1.9639082 -0.38009879
3.7330234 -1.8842958 -0.38393196
3.5856566 -1.8099104 -0.38700891
3.4383202 -1.7355403 -0.38887092
3.3083568 -1.6700119 -0.39128435
3.1785023 -1.6044631 -0.39213377
3.0625443 -1.5459292 -0.39369667
2.950079 -1.4892229 -0.39454445
2.8654089 -1.4464808 -0.3978776
2.7841833 -1.4055384 -0.40107602
2.6995616 -1.362819 -0.40293607
2.6081004 -1.3166466 -0.40267238
2.5304599 -1.2775067 -0.40389132
2.4632382 -1.2435697 -0.4060306
2.3926306 -1.2079233 -0.40672153
2.3220234 -1.172328 -0.40688649
2.251487 -1.1367161 -0.40633777
2.1982112 -1.1098667 -0.40810269
2.141525 -1.0812461 -0.40884668
2.0883148 -1.0543805 -0.40969312
2.0282862 -1.0241169 -0.40846601
1.9785922 -0.9990254 -0.40891889
1.9357901 -0.97741389 -0.41032439
1.8930268 -0.95586348 -0.41115597
1.846869 -0.93255657 -0.41094542
1.8007374 -0.90930235 -0.41027126
1.7581056 -0.887775 -0.40979561
1.7223113 -0.86970019 -0.41065606
1.6899394 -0.85339069 -0.41198954
9.5886841 -4.7865939 -0.34786612
8.500967 -4.2436142 -0.35185802
7.5740252 -3.7810574 -0.35164455
6.8637862 -3.4264965 -0.35377961
6.3631315 -3.1765625 -0.36053696
5.9114003 -2.9511809 -0.36475798
5.4912047 -2.7414045 -0.36695802
5.1408772 -2.5665085 -0.36989456
4.8254943 -2.4091635 -0.37158194
4.5625134 -2.2778683 -0.37474337
4.3274493 -2.1606052 -0.37766033
4.120388 -2.0572238 -0.38044655
3.913373 -1.9538655 -0.38145629
3.7412097 -1.8679895 -0.38393196
3.5830836 -1.7890371 -0.38588497
3.4458601 -1.7205213 -0.38887092
3.3156121 -1.6555606 -0.39128435
3.1854727 -1.590579 -0.39213377
3.0727327 -1.5342853 -0.39414203
2.9669592 -1.481535 -0.39593369
2.8751614 -1.4356961 -0.39835814
2.7868235 -1.3916459 -0.40057781
2.7020183 -1.349297 -0.40242016
2.6207447 -1.3087116 -0.40373904
2.5429296 -1.2699089 -0.40499333
2.468641 -1.23281 -0.4060306
2.3978784 -1.1974721 -0.40672153
2.3202109 -1.1587365 -0.40567911
2.2564256 -1.1268814 -0.40633777
2.203033 -1.1002647 -0.40810269
2.1462226 -1.0718918 -0.40884668
2.0928955 -1.0452585 -0.40969312
2.0292962 -1.0135392 -0.40777487
1.9794958 -0.98866624 -0.40821019
1.933169 -0.96552819 -0.40887192
1.8971796 -0.94759452 -0.41115597
1.8509204 -0.9244892 -0.41094542
1.8081123 -0.90314698 -0.41104975
1.7619625 -0.88009536 -0.40979561
1.7260896 -0.8621769 -0.41065606
1.6868178 -0.84259748 -0.41032827
9.6199808 -4.7498951 -0.34824631
8.5404034 -4.2168508 -0.35272539
7.6044488 -3.7548854 -0.35229304
6.8961658 -3.405153 -0.35467935
6.3769312 -3.1487679 -0.36053696
5.9382095 -2.9322672 -0.3656193
5.5136027 -2.7225978 -0.36765742
5.1520267 -2.5440528 -0.36989456
4.8464432 -2.3932619 -0.37238741
4.5793953 -2.2613888 -0.37531596
4.3333435 -2.1399782 -0.37735626
4.1258345 -2.0375021 -0.38012496
3.9288394 -1.9402179 -0.38213503
3.7528124 -1.8533702 -0.38428912
3.5978281 -1.7768294 -0.38663426
3.4568193 -1.7071905 -0.38926333
3.3262873 -1.6427979 -0.39169452
3.1923828 -1.5766647 -0.39213377
3.0793979 -1.5208634 -0.39414203
2.9768729 -1.4702927 -0.39639679
2.8813984 -1.4231373 -0.39835814
2.7893953 -1.3777571 -0.40007958
2.70788 -1.3374945 -0.40242016
2.62643 -1.2972641 -0.40373904
2.5519137 -1.2605139 -0.40554434
2.4739966 -1.2220269 -0.4060306
2.3996177 -1.1852876 -0.4061355
2.3252449 -1.1486017 -0.40567911
2.2613211 -1.1170253 -0.40633777
2.2078128 -1.0906416 -0.40810269
2.1508791 -1.0625169 -0.40884668
2.0939865 -1.0344125 -0.40901926
2.033699 -1.0046751 -0.40777487
1.9837908 -0.98001969 -0.40821019
1.9373635 -0.95708394 -0.40887192
1.897858 -0.93760896 -0.41041246
1.8446314 -0.91131312 -0.40866238
1.805172 -0.89185798 -0.40949276
1.7623572 -0.87070501 -0.40899989
1.7264097 -0.85294491 -0.40984288
1.6870562 -0.83353865 -0.40949765
9.6230679 -4.6993065 -0.34779957
8.5727463 -4.1863952 -0.35347015
7.6347828 -3.7285171 -0.35308981
6.9179649 -3.3784525 -0.35517362
6.4046259 -3.1277585 -0.36145243
5.9649606 -2.9131727 -0.36659646
5.5359354 -2.703645 -0.36846435
5.1735806 -2.5266778 -0.37074789
4.8638368 -2.3755102 -0.37301883
4.5962138 -2.2448025 -0.37597778
4.3426337 -2.1210473 -0.3774406
4.1346798 -2.0194774 -0.38020527
3.9512486 -1.9298851 -0.38356927
3.7573621 -1.8352677 -0.38400495
3.6125283 -1.7645241 -0.38745371
3.4712136 -1.6954995 -0.39011556
3.3334177 -1.6282657 -0.39175925
3.2062032 -1.5661256 -0.39305133
3.0929725 -1.5108161 -0.39509282
2.9867389 -1.4589891 -0.39691788
2.8910575 -1.4122498 -0.39889482
2.7988553 -1.3672705 -0.40063217
2.7136838 -1.3256633 -0.40247288
2.6390128 -1.2891858 -0.40485698
2.5608578 -1.2510616 -0.4061451
2.4827712 -1.2129138 -0.4066475
2.4047604 -1.1748029 -0.4061822
2.3302281 -1.1384419 -0.40572438
2.2696321 -1.1088375 -0.40700316
2.2160065 -1.0826864 -0.40878439
2.1589482 -1.0548091 -0.40954486
2.0984738 -1.0252627 -0.40906003
2.0415113 -0.99747652 -0.40850568
1.9914931 -0.97303772 -0.40895757
1.9449632 -0.95030332 -0.40963593
1.9019246 -0.92931592 -0.41044942
1.8520262 -0.90493464 -0.40945938
1.8159183 -0.88733089 -0.41108504
1.7730052 -0.86636186 -0.41062579
1.7335413 -0.84707814 -0.41068974
1.6975293 -0.82951802 -0.41119188
9.7102785 -4.6895328 -0.3502087
8.6401424 -4.1727161 -0.35549492
7.668551 -3.7036555 -0.35390076
6.953723 -3.3584173 -0.35625371
6.4322643 -3.10657 -0.3622438
5.9881511 -2.8922069 -0.36724263
5.5547018 -2.6828561 -0.36893076
5.2091274 -2.5159476 -0.37250501
4.8706465 -2.3525703 -0.37275028
4.6129808 -2.2281151 -0.3765505
4.3553538 -2.1037726 -0.37774473
4.1434517 -2.0014172 -0.38020527
3.9491193 -1.9075485 -0.38255095
3.7723396 -1.8222395 -0.3847194
3.6271954 -1.7521272 -0.38820314
3.4855778 -1.6837184 -0.39090049
3.3439884 -1.6153952 -0.39216948
3.2130063 -1.5521212 -0.39305133
3.0960407 -1.4956181 -0.39464739
2.9930766 -1.4459431 -0.39691788
2.9006827 -1.4013081 -0.39937541
2.8117716 -1.358416 -0.40162876
2.7264152 -1.3171788 -0.40350485
2.6411285 -1.2759753 -0.40432358
2.566292 -1.2398758 -0.4061451
2.4880397 -1.202069 -0.4066475
2.4133408 -1.1659791 -0.40676832
2.3455982 -1.1333004 -0.40753564
2.2813935 -1.1022793 -0.40824592
2.2276495 -1.0763602 -0.41006184
2.1704645 -1.0487294 -0.4108575
2.1098561 -1.0194446 -0.41040784
2.0493059 -0.99023199 -0.40919688
1.9991785 -0.96601027 -0.40966633
1.952547 -0.94347769 -0.41036224
1.9094142 -0.92267692 -0.41119298
1.8628566 -0.90017909 -0.41098154
1.8232192 -0.88106459 -0.4118636
1.7870986 -0.86360943 -0.41301313
1.7441009 -0.8428309 -0.41231623
1.7080059 -0.82542491 -0.41285327
9.7095041 -4.6370215 -0.34963572
8.6829195 -4.14675 -0.35667527
7.7128072 -3.6836135 -0.35534748
6.9823895 -3.3347681 -0.35710883
6.4563131 -3.0835156 -0.36296219
6.0218248 -2.8761344 -0.36865145
5.566349 -2.6585908 -0.36903843
5.2306023 -2.4982319 -0.3733592
4.8738265 -2.3279338 -0.37230745
4.6261683 -2.2096424 -0.37692633
4.3750281 -2.0897815 -0.3787418
4.1626778 -1.9883499 -0.38125077
3.9573989 -1.8902962 -0.38262749
3.7942886 -1.812466 -0.38622165
3.6383083 -1.737957 -0.38864824
3.4928849 -1.6684908 -0.39096805
3.3509989 -1.6007861 -0.3922343
3.2197418 -1.538084 -0.39311358
3.102531 -1.4820919 -0.39470741
3.0028508 -1.4345386 -0.39743909
2.9102609 -1.3903061 -0.3999123
2.8211615 -1.3478016 -0.40218163
2.7286363 -1.3035979 -0.40304163
2.6466646 -1.2644361 -0.40437478
2.5716712 -1.2286634 -0.40619484
2.4967418 -1.1928645 -0.40726453
2.4218838 -1.1570997 -0.40740129
2.3539965 -1.1247158 -0.40818492
2.2896547 -1.0939739 -0.40891162
2.2357953 -1.0682883 -0.4107438
2.1784878 -1.0409061 -0.41155598
2.1212213 -1.0135435 -0.41179669
2.0605385 -0.98459285 -0.41061917
2.006834 -0.95893115 -0.41041392
1.9566386 -0.93494606 -0.41040009
1.9168756 -0.91598707 -0.41197363
1.877131 -0.89699501 -0.41330108
1.837401 -0.87804925 -0.41423485
1.7977445 -0.85909832 -0.41463947
1.7477553 -0.83520973 -0.41235003
1.7081409 -0.81631559 -0.41205561
9.7543564 -4.6062818 -0.35052374
8.7009296 -4.1088243 -0.35667527
7.7358651 -3.6532583 -0.355672
7.0039306 -3.3076026 -0.35746902
6.4732337 -3.0569813 -0.3631601
6.034317 -2.8498318 -0.36865145
5.5849481 -2.6376081 -0.36950499
5.244978 -2.4770501 -0.37361029
4.8874612 -2.3083098 -0.37257609
4.6428108 -2.1927633 -0.37749916
4.3876262 -2.0723352 -0.37904599
4.1748338 -1.9718306 -0.38157251
3.9656093 -1.8730109 -0.38262749
3.8021607 -1.7958932 -0.38622165
3.6493726 -1.723726 -0.38902301
3.5071602 -1.6565541 -0.39175314
3.3579516 -1.5861493 -0.3922343
3.2264223 -1.5240207 -0.39311358
3.1089683 -1.4685405 -0.39470741
3.0125885 -1.4230793 -0.39790231
2.9198048 -1.3792503 -0.40039298
2.8305187 -1.337134 -0.40268001
2.7342985 -1.2916796 -0.40304163
2.6486576 -1.251223 -0.40384129
2.5700145 -1.2141269 -0.40509254
2.4984286 -1.1803083 -0.40669572
2.4269094 -1.1465212 -0.40740129
2.3588817 -1.1144339 -0.40818492
2.2944062 -1.0839731 -0.40891162
2.2369509 -1.0568765 -0.41010502
2.1830087 -1.0313908 -0.41155598
2.1291022 -1.005922 -0.41247067
2.0682912 -0.97723514 -0.41131043
2.0109992 -0.95016557 -0.41041392
1.9641697 -0.92803937 -0.41112646
1.9277885 -0.910891 -0.41346091
1.8879553 -0.89206958 -0.41482335
1.8446757 -0.8716591 -0.41501349
1.8014759 -0.851246 -0.41463947
1.7513829 -0.82757574 -0.41235003
1.7047845 -0.80559313 -0.4103941
9.8097382 -4.580194 -0.3517924
8.7258492 -4.0741229 -0.35696465
7.7729497 -3.6293769 -0.35664555
7.0218315 -3.2786617 -0.35764909
6.5006504 -3.0353096 -0.36395174
6.0466943 -2.8234751 -0.36865145
5.6070027 -2.6181633 -0.37020481
5.2522039 -2.4524918 -0.3733592
4.9045486 -2.2902601 -0.37311333
4.6558642 -2.1741328 -0.37778556
4.4072127 -2.0581145 -0.37995863
4.1833978 -1.9535958 -0.38157251
3.9843218 -1.8606297 -0.38364601
3.8064361 -1.7776401 -0.38586435
3.6568589 -1.7077862 -0.38902301
3.5073121 -1.6379465 -0.39096805
3.3648405 -1.5714825 -0.3922343
3.2330413 -1.5099283 -0.39311358
3.1153462 -1.4549612 -0.39470741
3.0222836 -1.4115622 -0.39836553
2.9293075 -1.3681376 -0.40087363
2.8363261 -1.3247708 -0.40268001
2.7399082 -1.2797368 -0.40304163
2.6540918 -1.2396542 -0.40384129
2.5822954 -1.2061749 -0.40619484
2.5035548 -1.1693957 -0.40669572
2.4318891 -1.135921 -0.40740129
2.3602252 -1.1024975 -0.40758109
2.29562 -1.0723194 -0.40829015
2.2415411 -1.0471059 -0.41010502
2.1874883 -1.0218558 -0.41155598
2.1299851 -0.99499404 -0.41179669
2.0725353 -0.96820122 -0.41131043
2.0186062 -0.94300777 -0.41112274
1.9751551 -0.92270923 -0.41257921
1.9317447 -0.90247083 -0.41346091
1.8883585 -0.88220167 -0.4140622
1.8449934 -0.86198163 -0.41423485
1.7947785 -0.83852124 -0.41225192
1.7515157 -0.81830883 -0.41153672
1.7117414 -0.79976267 -0.41122484
9.8508987 -4.5471649 -0.35255358
8.7718964 -4.0490985 -0.35812223
7.7993426 -3.6003339 -0.35713232
7.0360703 -3.247992 -0.35764909
6.5209165 -3.0101867 -0.36434755
6.0483327 -2.7921605 -0.36800507
5.6219134 -2.5953078 -0.37043807
5.2770119 -2.4360869 -0.37436354
4.9251094 -2.2737384 -0.37391919
4.6688433 -2.1554298 -0.37807199
4.4126148 -2.0372324 -0.37965444
4.1883478 -1.9336919 -0.38125077
3.9924026 -1.8432271 -0.38364601
3.8247511 -1.7659062 -0.38693619
3.6642759 -1.6918139 -0.38902301
3.5144255 -1.6226274 -0.39096805
3.3716652 -1.5567857 -0.3922343
3.2395988 -1.4958072 -0.39311358
3.121665 -1.441354 -0.39470741
3.0284138 -1.3983617 -0.39836553
2.9352491 -1.3553431 -0.40087363
2.8455968 -1.3140067 -0.40317836
2.7489815 -1.2693927 -0.40355769
2.666502 -1.2313063 -0.40490824
2.5875337 -1.194896 -0.40619484
2.5086334 -1.1584607 -0.40669572
2.4403286 -1.1269182 -0.40798748
2.3685169 -1.0938066 -0.40818492
2.3037782 -1.0639095 -0.40891162
2.2495873 -1.0389311 -0.4107438
2.191926 -1.0123014 -0.41155598
2.1308131 -0.98407751 -0.41112271
2.0767403 -0.95914888 -0.41131043
2.0261891 -0.93580168 -0.41183159
1.9861312 -0.91730082 -0.41403195
1.9356641 -0.89403343 -0.41346091
1.8887116 -0.87234724 -0.41330108
1.8417867 -0.85071295 -0.41267759
1.801892 -0.8322857 -0.41304776
1.7620066 -0.81386286 -0.41316336
1.7256099 -0.79708791 -0.41371712
9.9310217 -4.5316896 -0.35490078
8.8072309 -4.0188856 -0.35901466
7.8433771 -3.5792284 -0.35858089
7.0572696 -3.2204981 -0.35814467
6.5375323 -2.9833221 -0.36467087
6.0675488 -2.7689791 -0.36855239
5.6331782 -2.5707502 -0.37054613
5.2946777 -2.4162726 -0.37496728
4.9456134 -2.2570782 -0.37481993
4.6675653 -2.1301827 -0.37730229
4.4214559 -2.0179567 -0.37973925
4.1967392 -1.9153956 -0.38133129
3.9968607 -1.8241709 -0.38338318
3.8288751 -1.7475829 -0.38665238
3.6539307 -1.6677344 -0.38721919
3.5250015 -1.6088883 -0.39142823
3.371352 -1.5388304 -0.39147839
3.2460885 -1.4816546 -0.39317587
3.1279182 -1.4277167 -0.3947674
3.0344801 -1.3851315 -0.39842376
2.937602 -1.3409102 -0.40044934
2.8442478 -1.2983572 -0.40223619
2.7509654 -1.2557752 -0.40309441
2.6648023 -1.2164431 -0.40389243
2.5856805 -1.1803796 -0.40514216
2.5066266 -1.144291 -0.40560621
2.4417026 -1.1146529 -0.40744814
2.3732605 -1.0834587 -0.40823045
2.308392 -1.0538443 -0.4089559
2.250587 -1.0275022 -0.4101482
2.1928127 -1.0011255 -0.41094166
2.1315801 -0.9731698 -0.41048965
2.0774016 -0.94847858 -0.41065902
2.026752 -0.92535347 -0.41116163
1.9866168 -0.90702891 -0.4133437
1.9325633 -0.8823905 -0.4120107
1.8785523 -0.85772955 -0.41029254
1.8315465 -0.8363058 -0.40959817
1.7950634 -0.81964719 -0.41069466
1.762059 -0.80457699 -0.41238385
1.7255929 -0.7879625 -0.41291949
9.9898481 -4.5059724 -0.35629702
8.8531494 -3.9932587 -0.36017278
7.8589201 -3.5449712 -0.35858089
7.0854826 -3.1960921 -0.35886529
6.5575995 -2.9579766 -0.36506683
6.090239 -2.7472894 -0.36919898
5.6514506 -2.5493531 -0.37101284
5.3016171 -2.3915443 -0.37471613
4.9625192 -2.2386825 -0.3753573
4.6803665 -2.1113985 -0.37758878
4.4266691 -1.9970438 -0.37943497
4.2050567 -1.8970658 -0.38133129
4.001235 -1.8051138 -0.38304362
3.8293724 -1.7276603 -0.38593766
3.6718054 -1.6565723 -0.38834375
3.5249028 -1.5902958 -0.390643
3.3815751 -1.5257031 -0.39188874
3.2525225 -1.4674768 -0.39317587
3.1376553 -1.415651 -0.39521298
3.0369594 -1.3702828 -0.39796048
2.9434249 -1.3280797 -0.40044934
2.8498859 -1.2859346 -0.40223619
2.7528892 -1.2421674 -0.40257829
2.6700847 -1.2048041 -0.40389243
2.5908062 -1.1690862 -0.40514216
2.5151181 -1.1349325 -0.40617508
2.446543 -1.1039883 -0.40744814
2.3814831 -1.0746804 -0.40883434
2.3164835 -1.0453483 -0.4095774
2.2585614 -1.0192575 -0.41078705
2.1971602 -0.99154806 -0.41094166
2.1393132 -0.96544248 -0.41116369
2.0850246 -0.94098669 -0.41135037
2.0342717 -0.91808146 -0.41187054
1.9905555 -0.89835209 -0.4133437
1.9398903 -0.87552726 -0.41275442
1.8857691 -0.8511008 -0.41105375
1.8351781 -0.82830626 -0.40959817
1.7951369 -0.81023371 -0.40989873
1.7655529 -0.7968809 -0.41238385
1.7359724 -0.7835663 -0.41458112
8.8954468 -3.965718 -0.36118612
7.8814421 -3.5138252 -0.35890552
7.1171803 -3.1730902 -0.35976604
6.5811329 -2.9341013 -0.36566076
6.1057305 -2.7222779 -0.36941451
5.6660814 -2.5262578 -0.37124616
5.3155622 -2.3699765 -0.37496728
4.9757991 -2.2185953 -0.375626
4.6824188 -2.0877836 -0.3770158
4.4460111 -1.9824678 -0.38034782
4.213294 -1.8786997 -0.38133129
4.0090733 -1.7876379 -0.38304362
3.8404269 -1.7125193 -0.38629502
3.6789985 -1.6405354 -0.38834375
3.5318081 -1.5749004 -0.390643
3.391748 -1.5125158 -0.39229912
3.2588947 -1.4532712 -0.39317587
3.1473467 -1.4035275 -0.39565855
3.0429096 -1.3570185 -0.39796048
2.9491918 -1.3152241 -0.40044934
2.8554697 -1.2734874 -0.40223619
2.7618191 -1.2317209 -0.40309441
2.671782 -1.1915661 -0.40335888
2.588819 -1.1546202 -0.40403974
2.5200462 -1.1239475 -0.40617508
2.4548638 -1.0948758 -0.40803438
2.3861496 -1.0642791 -0.40883434
2.3210225 -1.0352309 -0.4095774
2.2594676 -1.0078232 -0.4101482
2.2014656 -0.98195171 -0.41094166
2.1435053 -0.95609885 -0.41116369
2.0891106 -0.93188012 -0.41135037
2.03475 -0.9076317 -0.41116163
1.9909512 -0.88809454 -0.41261724
1.9401898 -0.86549228 -0.4120107
1.8859657 -0.84130365 -0.41029254
1.8352791 -0.81873143 -0.40881947
1.7916701 -0.79927713 -0.4083069
1.7620348 -0.78605658 -0.41075709
1.7358891 -0.77442914 -0.41375029
8.9090929 -3.9252927 -0.36104137
7.9074135 -3.4841235 -0.35939252
7.1488118 -3.1498723 -0.36066681
6.6117229 -2.913223 -0.36665064
6.1246891 -2.6987562 -0.36984557
5.6841869 -2.5046554 -0.37171286
5.3294196 -2.3483322 -0.37521842
4.9747338 -2.1921489 -0.37481993
4.7021785 -2.0720456 -0.37787527
4.4581828 -1.96462 -0.3806521
4.2250137 -1.8618678 -0.3816531
4.0168347 -1.7701281 -0.38304362
3.8514223 -1.6973147 -0.38665238
3.6967957 -1.6291711 -0.38946831
3.5315335 -1.5563403 -0.3898578
3.3983152 -1.4977021 -0.39229912
3.2723105 -1.4421695 -0.39403152
3.156992 -1.3913463 -0.3961041
3.0452526 -1.3421642 -0.39749718
2.9549024 -1.3023432 -0.40044934
2.8609991 -1.261016 -0.40223619
2.7742534 -1.2227819 -0.40412667
2.6804967 -1.1814576 -0.40389243
2.6009095 -1.146433 -0.40514216
2.5249264 -1.112941 -0.40617508
2.4596176 -1.0841541 -0.40803438
2.3907707 -1.0538574 -0.40883434
2.3255174 -1.0250937 -0.4095774
2.26737 -0.99950933 -0.41078705
2.2127764 -0.97544324 -0.41225457
2.1511774 -0.94828898 -0.41183773
2.0966747 -0.92430663 -0.41204172
2.0457208 -0.90184391 -0.41257945
2.0018313 -0.88249546 -0.41407013
1.9509656 -0.86011237 -0.4134981
1.8966303 -0.83615774 -0.41181496
1.845839 -0.81380421 -0.41037688
1.8021392 -0.79453748 -0.40989873
1.7724396 -0.78144342 -0.41238385
1.7462366 -0.76992726 -0.41541195
8.9440308 -3.8941736 -0.36176518
7.9440112 -3.4589365 -0.36036646
7.1732206 -3.1233232 -0.36120728
6.6351018 -2.8890185 -0.36724457
6.143558 -2.6751208 -0.3702766
5.7093616 -2.4860566 -0.37264621
5.3539114 -2.3312809 -0.37622303
4.9913974 -2.1735334 -0.3753573
4.711175 -2.0515087 -0.37787527
4.470283 -1.9467038 -0.38095635
4.2402358 -1.8465236 -0.38229668
4.0280881 -1.7541382 -0.38338318
3.8694906 -1.685153 -0.38772443
3.6967394 -1.6099204 -0.38871861
3.5382907 -1.5409164 -0.3898578
3.4119408 -1.4859622 -0.39311981
3.2856917 -1.4309784 -0.39488718
3.1630328 -1.3775582 -0.3961041
3.0546358 -1.3304127 -0.39796048
2.9641109 -1.2909857 -0.40093008
2.8735781 -1.2516148 -0.40323308
2.7866621 -1.2137576 -0.40515894
2.6927216 -1.1728411 -0.4049595
2.612978 -1.1381621 -0.40624458
2.5368447 -1.105 -0.40731281
2.4678655 -1.074954 -0.40862066
2.3988845 -1.0449569 -0.40943825
2.3370395 -1.0180172 -0.41082042
2.2752426 -0.99114561 -0.41142592
2.2205417 -0.96731675 -0.41291103
2.1588221 -0.94043034 -0.41251177
2.1042125 -0.91668487 -0.41273305
2.0496364 -0.89290923 -0.41257945
2.0056627 -0.87375242 -0.41407013
1.9582157 -0.85312313 -0.41424182
1.9107981 -0.83246499 -0.41409859
1.8599001 -0.81032926 -0.41271299
1.8161068 -0.79124916 -0.41228649
1.779335 -0.77522832 -0.41319722
1.742581 -0.75925136 -0.41375029
8.989624 -3.8674524 -0.36292329
7.9769535 -3.4319534 -0.3611781
7.1975336 -3.0966208 -0.36174774
6.6619792 -2.8662074 -0.36803645
6.1623373 -2.6513722 -0.37070766
5.7273183 -2.4642034 -0.37311289
5.3747749 -2.31252 -0.37697649
5.0079932 -2.1548142 -0.37589467
4.7343955 -2.037092 -0.3790212
4.4823117 -1.9287193 -0.38126063
4.2446766 -1.8264658 -0.38197491
4.039278 -1.738084 -0.38372278
3.8732336 -1.6667156 -0.38736707
3.6930141 -1.5891644 -0.38759404
3.5556905 -1.5300717 -0.39103562
3.4255285 -1.4741318 -0.39394054
3.2954707 -1.4181631 -0.39531502
3.1761427 -1.3668119 -0.39699522
3.0639744 -1.3186051 -0.39842376
2.9661548 -1.2765076 -0.40044934
2.8718944 -1.2360014 -0.40223619
2.7883749 -1.2000564 -0.40464279
2.6978135 -1.1610807 -0.4049595
2.6179192 -1.12675 -0.40624458
2.541642 -1.0939205 -0.40731281
2.4725323 -1.0641757 -0.40862066
2.4105108 -1.0375315 -0.41064602
2.341459 -1.0078102 -0.41082042
2.2830851 -0.98273224 -0.41206476
2.2247412 -0.95761865 -0.41291103
2.162905 -0.93100178 -0.41251177
2.104661 -0.90597475 -0.41204172
2.0499845 -0.88243872 -0.41187054
2.0024054 -0.86195773 -0.41261724
1.9619195 -0.8445707 -0.41424182
1.9108931 -0.82260478 -0.41333738
1.8634181 -0.80220622 -0.41271299
1.8230546 -0.78482962 -0.41308242
1.7862099 -0.76896787 -0.41401061
1.7563946 -0.75616866 -0.41624278
9.0207777 -3.8342965 -0.36367342
8.0169897 -3.4078 -0.36246645
7.2145619 -3.0667105 -0.36206469
6.6744156 -2.8371091 -0.36816305
6.1810203 -2.6275079 -0.37125593
5.7380099 -2.4391873 -0.37322173
5.391983 -2.2920938 -0.37758103
5.028101 -2.1375136 -0.3767961
4.7432327 -2.0164123 -0.37911117
4.4942627 -1.9106643 -0.38165015
4.2561822 -1.8094481 -0.38237742
4.0468173 -1.7204401 -0.38379952
3.876883 -1.6482751 -0.38708326
3.717798 -1.5806394 -0.38953879
3.5659032 -1.5160606 -0.39149585
3.4283469 -1.4576485 -0.39359519
3.301621 -1.4037677 -0.39537764
3.1784987 -1.3514192 -0.39660993
3.0625536 -1.3021853 -0.39755526
2.9681225 -1.2620336 -0.40002489
2.8736885 -1.2219398 -0.40179226
2.7935781 -1.1878756 -0.40469578
2.7064085 -1.1508096 -0.4055444
2.6263628 -1.116827 -0.4068456
2.5499408 -1.0843296 -0.40793005
2.4806995 -1.0548856 -0.40925395
2.4185598 -1.0285113 -0.41129577
2.3493764 -0.99909055 -0.41148651
2.2873447 -0.97275823 -0.41210815
2.2288918 -0.94789946 -0.41295329
2.1633992 -0.92004687 -0.41187876
2.1050494 -0.89527535 -0.4113903
2.0502739 -0.87197936 -0.41120052
2.0061407 -0.85320961 -0.41265529
1.9585216 -0.83299756 -0.41279155
1.9144576 -0.81425631 -0.41337368
1.8633716 -0.79256684 -0.41196963
1.8229359 -0.77536792 -0.41232106
1.7825099 -0.75817311 -0.41241765
1.7491337 -0.74401295 -0.41378349
9.0410204 -3.7964108 -0.36381826
8.0497751 -3.3803425 -0.36327842
7.231472 -3.0367126 -0.36224493
6.6975222 -2.8124909 -0.36875716
6.1924262 -2.6005132 -0.37125593
5.7450032 -2.4126174 -0.37298831
5.4055271 -2.2700543 -0.37783226
5.0409727 -2.117063 -0.37706485
4.7663531 -2.0017307 -0.38025737
4.5025563 -1.8910363 -0.38165015
4.2604475 -1.7893524 -0.38205555
4.0578737 -1.7042731 -0.38413915
3.8876243 -1.6328497 -0.38744068
3.7246594 -1.5644025 -0.38953879
3.5760674 -1.501992 -0.39188853
3.4382558 -1.44418 -0.39400563
3.3041348 -1.3878448 -0.39494973
3.184365 -1.3375375 -0.39660993
3.0682063 -1.28881 -0.39755526
2.9736009 -1.2490708 -0.40002489
2.8789928 -1.2093894 -0.40179226
2.7987347 -1.1756752 -0.40469578
2.7114041 -1.1389898 -0.4055444
2.6312108 -1.1053568 -0.4068456
2.5546477 -1.0731931 -0.40793005
2.4852788 -1.0440515 -0.40925395
2.4230244 -1.0179486 -0.41129577
2.3572688 -0.99032372 -0.41210809
2.2915673 -0.96276861 -0.41210815
2.2294564 -0.93667358 -0.41229677
2.1638458 -0.90910822 -0.41120464
2.1053913 -0.88459265 -0.41069889
2.054059 -0.86302507 -0.41120052
2.0063059 -0.84296137 -0.4119288
1.9586022 -0.82295853 -0.4120478
1.9144599 -0.80441099 -0.41261241
1.8632832 -0.78294599 -0.41119087
1.8227761 -0.76592505 -0.41152507
1.7858011 -0.75038826 -0.41241765
1.7629198 -0.7408098 -0.41627616
9.079134 -3.7658997 -0.36468723
8.0788679 -3.3511682 -0.36392799
7.2554665 -3.0096159 -0.36278558
6.7169375 -2.7862303 -0.36915326
6.2145219 -2.5779524 -0.37190273
5.7734838 -2.3949978 -0.37415537
5.4189811 -2.2479403 -0.37808347
5.0501618 -2.0950475 -0.37706485
4.7786403 -1.9824075 -0.38054392
4.5143619 -1.8728645 -0.38195449
4.2790017 -1.7752211 -0.38302115
4.0724602 -1.6895336 -0.38481846
3.894712 -1.6158712 -0.38744068
3.7350414 -1.5496258 -0.38991374
3.582587 -1.4863741 -0.39188853
3.4445245 -1.4291641 -0.39400563
3.310159 -1.3734146 -0.39494973
3.1865864 -1.3221432 -0.39616433
3.0738006 -1.2754103 -0.39755526
2.9790227 -1.2360841 -0.40002489
2.8878207 -1.1983008 -0.40229076
2.8074141 -1.1649362 -0.40521199
2.7234964 -1.1301144 -0.40661162
2.6431525 -1.0968299 -0.40794817
2.5664451 -1.0649986 -0.40906793
2.4933777 -1.0346777 -0.40984029
2.427443 -1.0073665 -0.41129577
2.3615675 -0.98002881 -0.41210809
2.2993057 -0.95423776 -0.41274709
2.2406354 -0.9298889 -0.41360983
2.1784532 -0.90408254 -0.41322696
2.1163328 -0.87834519 -0.41208169
2.068449 -0.85847193 -0.41332743
2.0170548 -0.83714169 -0.41338181
1.969258 -0.81734478 -0.41353533
1.9179516 -0.79604995 -0.41261241
1.870217 -0.77627587 -0.41196963
1.8296328 -0.75943047 -0.41232106
1.7855296 -0.74112445 -0.41160423
1.7555598 -0.72872072 -0.41378349
9.1207647 -3.7366076 -0.36570108
8.0934134 -3.3158858 -0.36392799
7.2829723 -2.9838467 -0.36350647
6.7434707 -2.7628119 -0.36994544
6.2293205 -2.5522907 -0.37211832
5.8019199 -2.3771751 -0.3753224
5.4359522 -2.2272301 -0.3785859
5.0664673 -2.0759473 -0.37760237
4.7872448 -1.9615378 -0.38054392
4.518887 -1.8516725 -0.38165015
4.2939115 -1.7594857 -0.38366488
4.0833941 -1.6732235 -0.38515809
3.9089243 -1.6018119 -0.38815549
3.7453651 -1.5347881 -0.39028865
3.596231 -1.4736755 -0.39267388
3.4507277 -1.414121 -0.39400563
3.3125272 -1.3574859 -0.39452183
3.1923249 -1.3082266 -0.39616433
3.0829253 -1.2634571 -0.39801863
2.9879746 -1.224544 -0.40050569
2.8966067 -1.1871582 -0.40278926
2.8088877 -1.1512071 -0.40469578
2.7284014 -1.1182203 -0.40661162
2.6479132 -1.0852866 -0.40794817
2.5746434 -1.0552559 -0.40963688
2.5014422 -1.0252532 -0.41042659
2.4318154 -0.99676526 -0.41129577
2.3658211 -0.96971518 -0.41210809
2.2998817 -0.94273448 -0.41210815
2.2446713 -0.92010343 -0.41360983
2.1823771 -0.89456868 -0.41322696
2.1237023 -0.87056088 -0.4127731
2.072175 -0.84943843 -0.41332743
2.0206883 -0.82833272 -0.41338181
1.9728056 -0.80874455 -0.41353533
1.9249518 -0.78912705 -0.41337368
1.8735863 -0.76810819 -0.41196963
1.832929 -0.75143999 -0.41232106
1.7958164 -0.73622513 -0.4132311
1.7657858 -0.72394955 -0.41544527
9.1514502 -3.7026291 -0.36645269
8.1258879 -3.2878571 -0.36489296
7.3067679 -2.9564288 -0.36418471
6.7626882 -2.7362859 -0.37046885
6.2440071 -2.5265465 -0.37245148
5.8158455 -2.353297 -0.37566531
5.4528394 -2.2064121 -0.37919101
5.0754709 -2.0538185 -0.37769791
4.7849178 -1.9362445 -0.37977436
4.5341372 -1.8348569 -0.38234422
4.3123674 -1.7451118 -0.38471168
4.0942569 -1.6568477 -0.38557485
3.91587 -1.5847383 -0.38822922
3.7556241 -1.5198874 -0.39073429
3.5990179 -1.4565094 -0.39234897
3.4568586 -1.3990483 -0.39407068
3.3184125 -1.3430169 -0.39458433
3.2015936 -1.2957383 -0.39667022
3.0919976 -1.2514458 -0.3985402
2.9932828 -1.2114923 -0.40056205
2.8981612 -1.173052 -0.40234533
2.8138773 -1.1389375 -0.40474877
2.7296612 -1.1048503 -0.40612939
2.6526167 -1.0737199 -0.40799811
2.5756345 -1.0425591 -0.40911642
2.509465 -1.0157752 -0.41106018
2.4361348 -0.98614228 -0.41134167
2.3700233 -0.95938045 -0.41215271
2.3039668 -0.9326877 -0.41215155
2.2450888 -0.90885288 -0.41299558
2.1862531 -0.8850351 -0.41326812
2.1239104 -0.85984081 -0.41212168
2.0687337 -0.83750314 -0.41194844
2.0207191 -0.81806499 -0.41269335
1.9763089 -0.80012619 -0.41357255
1.92837 -0.78071767 -0.41341001
1.8804613 -0.76135963 -0.4127838
1.8397284 -0.74486768 -0.41315171
1.8025464 -0.72981352 -0.4140785
1.7653832 -0.7148028 -0.41464761
9.1892681 -3.6713529 -0.36732209
8.1691513 -3.2639546 -0.36619267
7.3268456 -2.9274147 -0.36454529
6.7818089 -2.7096469 -0.37086508
6.2549715 -2.4992778 -0.37245148
5.8224373 -2.3264515 -0.37543184
5.4660349 -2.1840451 -0.3794423
5.0880027 -2.0330989 -0.37796676
4.7933207 -1.9153481 -0.37977436
4.5457168 -1.8165007 -0.38264862
4.3235559 -1.7277236 -0.38503361
4.1014476 -1.6389675 -0.38557485
3.9227474 -1.5676371 -0.38822922
3.7586095 -1.5020431 -0.39035928
3.6053388 -1.440792 -0.39234897
3.4593229 -1.3825101 -0.39366022
3.3242409 -1.3285248 -0.39458433
3.207217 -1.2817564 -0.39667022
3.1010303 -1.239382 -0.3990036
2.9985404 -1.1984202 -0.40056205
2.9032521 -1.1603951 -0.40234533
2.8116293 -1.1237746 -0.40371624
2.7344561 -1.0929294 -0.40612939
2.6572766 -1.0621355 -0.40799811
2.5801589 -1.0313109 -0.40911642
2.510287 -1.0033826 -0.41047379
2.4404144 -0.97550333 -0.41134167
2.3741868 -0.94903016 -0.41215271
2.304436 -0.92119551 -0.41151255
2.2454574 -0.89761889 -0.41233897
2.1829484 -0.87263095 -0.41191977
2.1240721 -0.8491382 -0.41143021
2.0652344 -0.82561678 -0.41053039
2.0207055 -0.80781543 -0.41196677
1.9762205 -0.79007179 -0.41282871
1.9317582 -0.77229619 -0.41341001
1.8837655 -0.75314736 -0.4127838
1.842961 -0.73683333 -0.41315171
1.8057137 -0.72194147 -0.4140785
1.7684853 -0.70709306 -0.41464761
9.2451439 -3.6469791 -0.368916
8.1833143 -3.2282789 -0.36619267
7.3576984 -2.9025772 -0.36544675
6.7971959 -2.6814618 -0.37106317
6.2730737 -2.4748244 -0.37288281
5.8325329 -2.3010242 -0.37543184
5.4718862 -2.1587436 -0.37919101
5.1040754 -2.0137396 -0.3785044
4.8125043 -1.8987043 -0.38063422
4.5608444 -1.7995076 -0.38325745
4.3310533 -1.7088422 -0.38503361
4.1157994 -1.6239125 -0.38625425
3.918695 -1.5462228 -0.38715678
3.7615108 -1.4842017 -0.38998431
3.6043606 -1.422194 -0.39156348
3.461709 -1.3659769 -0.39324972
3.3300061 -1.3140075 -0.39458433
3.2091691 -1.2663257 -0.39622453
3.0991929 -1.2229919 -0.39807677
3.003741 -1.1853251 -0.40056205
2.9082875 -1.1477163 -0.40234533
2.8165059 -1.111496 -0.40371624
2.7319999 -1.0781467 -0.40506205
2.6582885 -1.0491112 -0.40744677
2.5810397 -1.0186244 -0.40854743
2.5074565 -0.98958439 -0.40930101
2.4374681 -0.96201211 -0.4101336
2.3747177 -0.93724608 -0.41153106
2.3120182 -0.91254658 -0.41215155
2.2493527 -0.88781273 -0.41233897
2.1867352 -0.86309779 -0.41191977
2.1277568 -0.83986217 -0.41143021
2.0688171 -0.81659764 -0.41053039
2.0170708 -0.7961725 -0.41051364
1.9760821 -0.78003335 -0.41208488
1.9315457 -0.7624532 -0.41264865
1.8834733 -0.74351525 -0.41200498
1.8390441 -0.72597647 -0.41155958
1.8017391 -0.71125001 -0.41245148
1.7644534 -0.69656682 -0.41298568
9.2718811 -3.6108546 -0.3693507
8.1900492 -3.1897092 -0.36586776
7.3921094 -2.8789423 -0.36652848
6.816102 -2.6546094 -0.37145939
6.2983499 -2.4530916 -0.37374547
5.8497844 -2.2783835 -0.37589881
5.4776211 -2.1334329 -0.37893972
5.1128135 -1.9914497 -0.3785044
4.8316331 -1.8819295 -0.3814941
4.5722818 -1.7810036 -0.38356188
4.3348408 -1.6885152 -0.38471168
4.1228461 -1.6059386 -0.38625425
3.9326534 -1.5319334 -0.38787174
3.764328 -1.4663637 -0.38960931
3.6032891 -1.4036322 -0.39077801
3.4640164 -1.3494494 -0.39283922
3.3357077 -1.2994651 -0.39458433
3.2182801 -1.2537197 -0.39667022
3.1081138 -1.2108656 -0.3985402
3.0088844 -1.1722076 -0.40056205
2.9096577 -1.1336092 -0.40184677
2.8141131 -1.0963849 -0.40268371
2.7294667 -1.0634063 -0.40399468
2.6556342 -1.0346944 -0.40634409
2.5818586 -1.0059499 -0.40797842
2.508152 -0.9772321 -0.40871459
2.4416423 -0.95136756 -0.4101336
2.3787847 -0.92687553 -0.41153106
2.3123872 -0.90105069 -0.41151255
2.2496171 -0.87659156 -0.4116824
2.1868951 -0.85215122 -0.41124561
2.1278191 -0.82917416 -0.41073874
2.0687814 -0.80616826 -0.40982133
2.0205257 -0.78736377 -0.41051364
1.9758937 -0.77001125 -0.41134104
1.9312843 -0.75262684 -0.41188732
1.8831331 -0.73390001 -0.41122612
1.838631 -0.71655655 -0.41076353
1.8012655 -0.70199436 -0.41163796
1.7710322 -0.69024736 -0.41381666
9.2875481 -3.5703642 -0.3693507
8.1966028 -3.1511421 -0.36554283
7.4191694 -2.8522618 -0.36724964
6.8385444 -2.6290433 -0.37205374
6.3162742 -2.4283857 -0.3741768
5.8669491 -2.255636 -0.37636575
5.4905162 -2.1109109 -0.37919101
5.1214542 -1.9691221 -0.3785044
4.8397985 -1.8608297 -0.3814941
4.5872793 -1.7638316 -0.38417071
4.3458009 -1.670982 -0.38503361
4.1225495 -1.5851408 -0.38557485
3.9429309 -1.5161556 -0.38822922
3.7743196 -1.4513203 -0.38998431
3.6130068 -1.3892914 -0.39117074
3.4698715 -1.334322 -0.39283922
3.3377218 -1.2835044 -0.39415637
3.2200975 -1.2382725 -0.39622453
3.1097472 -1.1959002 -0.39807677
3.0139704 -1.1590677 -0.40056205
2.9218085 -1.123684 -0.40284392
2.8297122 -1.0882652 -0.4042325
2.7413042 -1.0542648 -0.40506205
2.6601236 -1.0230973 -0.40634409
2.5862234 -0.9946748 -0.40797842
2.5123923 -0.96627897 -0.40871459
2.4457703 -0.94070482 -0.4101336
2.3756075 -0.91371846 -0.41028777
2.3127 -0.88956898 -0.41087356
2.2534206 -0.86676747 -0.4116824
2.1941838 -0.84398228 -0.41191977
2.1385932 -0.82264251 -0.41212168
2.0794499 -0.79989207 -0.41123942
2.027524 -0.77991807 -0.41124019
1.9828138 -0.76275933 -0.41208488
1.9381258 -0.74556845 -0.41264865
1.88989 -0.72705072 -0.41200498
1.8453094 -0.70990032 -0.41155958
1.8078772 -0.69550002 -0.41245148
1.7740271 -0.68251324 -0.41381666
9.3176374 -3.5353448 -0.3699303
8.2358179 -3.1250398 -0.36668006
7.4315443 -2.8198624 -0.36724964
6.8645401 -2.6047156 -0.37284619
6.3341031 -2.4035704 -0.37460813
5.8876719 -2.2341654 -0.3770662
5.5069637 -2.0897 -0.3796936
5.1336408 -1.9481394 -0.37877321
4.8478718 -1.8396944 -0.3814941
4.6022134 -1.7465627 -0.38477954
4.3530502 -1.652004 -0.38503361
4.1330647 -1.5685185 -0.38591453
3.9531457 -1.5003172 -0.38858673
3.7806163 -1.4348379 -0.38998431
3.6226678 -1.3748926 -0.39156348
3.4792924 -1.3205476 -0.39324972
3.3541806 -1.273062 -0.39544025
3.2327263 -1.2269646 -0.39711592
3.1258144 -1.1864492 -0.39946702
3.0189991 -1.1459059 -0.40056205
2.9303057 -1.1122996 -0.40334249
2.8380537 -1.077282 -0.40474877
2.7531137 -1.0450401 -0.40612939
2.6645625 -1.0114806 -0.40634409
2.5869257 -0.98200935 -0.4074094
2.5129738 -0.95393682 -0.4081282
2.4462435 -0.92865455 -0.40952957
2.3795717 -0.90334427 -0.41028777
2.3165593 -0.87946945 -0.41087356
2.253581 -0.85556012 -0.41102579
2.1978455 -0.83440036 -0.41191977
2.1421623 -0.81330335 -0.41212168
2.0865114 -0.79217464 -0.41194844
2.0344961 -0.77242625 -0.41196677
1.9861231 -0.75410044 -0.41208488
1.9449424 -0.73846471 -0.41341001
1.8930442 -0.71879762 -0.41200498
1.8519646 -0.70319945 -0.41235563
1.8144665 -0.68896127 -0.41326499
1.7805564 -0.67612106 -0.41464761
9.3402853 -3.4973931 -0.37022009
8.278615 -3.100024 -0.36797976
7.465703 -2.7956197 -0.36833137
6.8868008 -2.5788429 -0.37344053
6.3445306 -2.3759098 -0.37460813
5.9010158 -2.2098217 -0.37729967
5.5342822 -2.0724869 -0.38095003
5.1457419 -1.9270879 -0.37904206
4.8449082 -1.8144253 -0.38063422
4.6134377 -1.727831 -0.38508394
4.3565717 -1.6316292 -0.38471168
4.1398697 -1.5504698 -0.38591453
3.9560118 -1.4816897 -0.38822922
3.790482 -1.419692 -0.39035928
3.6359115 -1.361799 -0.39234897
3.4886591 -1.3067163 -0.39366022
3.3597035 -1.2584145 -0.39544025
3.2307808 -1.2101251 -0.39622453
3.1273293 -1.1714385 -0.3990036
3.0239704 -1.1327221 -0.40056205
2.9387593 -1.1008621 -0.40384105
2.8463531 -1.0662466 -0.40526503
2.7648947 -1.0357324 -0.40719676
2.6725719 -1.0012013 -0.40689543
2.598424 -0.9734239 -0.40854743
2.5171123 -0.94296283 -0.4081282
2.4538863 -0.91932589 -0.4101336
2.3834906 -0.89295286 -0.41028777
2.3203747 -0.86935323 -0.41087356
2.2608986 -0.84706986 -0.4116824
2.2050683 -0.82615244 -0.41259396
2.1492908 -0.80529755 -0.41281319
2.0899482 -0.78306299 -0.41194844
2.041441 -0.76488841 -0.41269335
1.9893945 -0.74542719 -0.41208488
1.9445583 -0.72862697 -0.41264865
1.8961626 -0.71053082 -0.41200498
1.8550152 -0.69511205 -0.41235563
1.8138777 -0.67969698 -0.41245148
1.7799156 -0.66700613 -0.41381666
9.373765 -3.4633698 -0.37094462
8.3286715 -3.0773995 -0.36960441
7.4997916 -2.7711327 -0.36941311
6.9053063 -2.5514734 -0.37383676
6.3658123 -2.3522596 -0.37525511
5.9142594 -2.1854043 -0.37753314
5.5323029 -2.0442657 -0.38019615
5.1614118 -1.9073187 -0.37957969
4.8527789 -1.7932682 -0.38063422
4.6245856 -1.7090347 -0.38538834
4.3636494 -1.6126046 -0.38471168
4.1538959 -1.5350893 -0.38659397
3.9660878 -1.4657627 -0.38858673
3.7966404 -1.4031395 -0.39035928
3.6418188 -1.3459214 -0.39234897
3.4906838 -1.2901351 -0.39324972
3.3615205 -1.2423971 -0.39501229
3.2433105 -1.1987075 -0.39711592
3.1396871 -1.1604712 -0.39993045
3.0325201 -1.1208608 -0.40104291
2.9399009 -1.0866858 -0.40334249
2.8473465 -1.0524746 -0.40474877
2.765758 -1.0223168 -0.40666306
2.6769149 -0.98953044 -0.40689543
2.5953968 -0.95939702 -0.4074094
2.5212028 -0.93197095 -0.4081282
2.4578743 -0.90861011 -0.4101336
2.3909814 -0.88388163 -0.41090941
2.3313749 -0.861893 -0.41215155
2.2681849 -0.83853209 -0.41233897
2.208652 -0.81652319 -0.41259396
2.149178 -0.79457873 -0.41212168
2.0897419 -0.77260441 -0.41123942
2.0411592 -0.75464272 -0.41196677
1.9890314 -0.73540986 -0.41134104
1.947719 -0.72013533 -0.41264865
1.8956546 -0.70092303 -0.41122612
1.8544436 -0.68568516 -0.41155958
1.8132427 -0.67045105 -0.41163796
1.7828089 -0.65923345 -0.41381666
9.4181213 -3.4331291 -0.37227878
8.3530149 -3.0450375 -0.37024698
7.5448003 -2.7504082 -0.37117586
6.9310284 -2.5266616 -0.37475795
6.383338 -2.3271308 -0.37580502
5.9310594 -2.1622467 -0.37811026
5.5411639 -2.0201049 -0.38029909
5.1733403 -1.8861123 -0.37994462
4.8605509 -1.7720747 -0.38072452
4.6246748 -1.6861696 -0.38486543
4.3779526 -1.5962141 -0.38543686
4.1605477 -1.5169476 -0.38667127
3.9760938 -1.4497738 -0.38901806
3.8063731 -1.3878899 -0.39080498
3.6513016 -1.3313472 -0.39280954
3.499923 -1.2762203 -0.39372522
3.3669028 -1.2277156 -0.39507484
3.2448573 -1.1832126 -0.39673051
3.1410704 -1.1454295 -0.39952537
3.0446591 -1.110272 -0.40206122
2.9446077 -1.0738453 -0.40339717
2.8519051 -1.0400382 -0.40480176
2.7629149 -1.0075852 -0.40564704
2.6848335 -0.97916341 -0.40749666
2.6031823 -0.94938505 -0.40802678
2.5288668 -0.92228204 -0.40876159
2.4618087 -0.89787453 -0.41017935
2.3984315 -0.87475955 -0.41157562
2.3351068 -0.85170978 -0.41219491
2.2718153 -0.82862484 -0.41238117
2.2121871 -0.80687594 -0.41263506
2.1526179 -0.78519118 -0.41216168
2.0894775 -0.76216006 -0.41056919
2.0444257 -0.74572688 -0.41200474
1.9922146 -0.72672164 -0.41137806
1.9472365 -0.71031451 -0.4119235
1.8950921 -0.69133073 -0.4104825
1.8538184 -0.67627406 -0.41079798
1.8125548 -0.66122109 -0.41085812
1.7856616 -0.65144575 -0.41384983
9.458725 -3.4012482 -0.37329355
8.388257 -3.0164859 -0.37122217
7.5567293 -2.7174616 -0.37117586
6.9530001 -2.5003557 -0.37535247
6.408112 -2.3045359 -0.37666795
5.9587836 -2.1429448 -0.379278
5.5535936 -1.9972271 -0.38055044
5.1925216 -1.867478 -0.38075131
4.8829002 -1.7561234 -0.38187128
4.6356525 -1.6672927 -0.38516992
4.4068551 -1.5850017 -0.38736889
4.1781125 -1.5027305 -0.3876906
3.986042 -1.4337276 -0.38937563
3.8160515 -1.3725842 -0.39118004
3.6607332 -1.3167182 -0.39320233
3.5127687 -1.2635666 -0.39454636
3.379535 -1.2156415 -0.39593092
3.2536409 -1.1703565 -0.39717627
3.1460383 -1.1317132 -0.39952537
3.0458269 -1.0956645 -0.40158027
2.9492652 -1.0609869 -0.40339717
2.8600593 -1.0288954 -0.40531808
2.7709262 -0.99683005 -0.4061808
2.6890802 -0.96743929 -0.40749666
2.6036634 -0.93670928 -0.40745771
2.529233 -0.90993166 -0.40817514
2.4657028 -0.88712436 -0.41017935
2.4022255 -0.86428612 -0.41157562
2.3460529 -0.84412223 -0.41347304
2.286279 -0.82261533 -0.41435117
2.2193069 -0.79851842 -0.41330931
2.1596408 -0.77709281 -0.41285324
2.0963976 -0.75433636 -0.41127831
2.0512714 -0.7380988 -0.41273138
1.9989747 -0.71932054 -0.41212195
1.9503173 -0.70181137 -0.4119235
1.9016923 -0.68435138 -0.41126141
1.8639482 -0.67076868 -0.41239023
1.8262074 -0.6571871 -0.41329885
1.7848958 -0.64235568 -0.41301879
9.5029078 -3.3703833 -0.37445328
8.4050179 -2.9811614 -0.37138468
7.5795474 -2.6883767 -0.37171695
6.9711971 -2.4726021 -0.37574884
6.4181066 -2.2765534 -0.37666795
5.9754267 -2.1195314 -0.3797451
5.573277 -1.9768856 -0.3813045
5.2042933 -1.8461064 -0.38102019
4.8941879 -1.7361034 -0.38215798
4.6392131 -1.645748 -0.38486543
4.4210668 -1.5683613 -0.38801289
4.1882973 -1.4857869 -0.38803038
3.9812617 -1.4124199 -0.38830295
3.8220041 -1.3559206 -0.39118004
3.673769 -1.3033316 -0.39398795
3.5219097 -1.2495261 -0.39495692
3.3884661 -1.2021822 -0.39635894
3.2550592 -1.1548512 -0.39673051
3.1472909 -1.1166782 -0.39906189
3.0469253 -1.0810679 -0.40109935
2.9538665 -1.0481082 -0.40339717
2.8681705 -1.017701 -0.40583441
2.7788961 -0.98602414 -0.40671453
2.7005649 -0.95828331 -0.4085995
2.6113679 -0.92663217 -0.40802678
2.5404584 -0.90147018 -0.40934804
2.4731872 -0.87764794 -0.41078344
2.4096084 -0.85508597 -0.41219732
2.3497138 -0.83387768 -0.41347304
2.2862177 -0.81134391 -0.4136945
2.2191441 -0.7875405 -0.41263506
2.1630111 -0.76766223 -0.41285324
2.1032894 -0.7464667 -0.41198739
2.0580895 -0.73042512 -0.41345802
2.0057082 -0.71187419 -0.41286585
1.9569715 -0.69457638 -0.41268489
1.9118748 -0.678608 -0.41281921
1.8704612 -0.66390854 -0.41318634
1.8326581 -0.65049052 -0.41411245
1.7912785 -0.63583833 -0.41384983
9.5359459 -3.335331 -0.37517813
8.4326811 -2.9496136 -0.37203482
7.6059384 -2.6604326 -0.37243837
6.9745545 -2.439585 -0.37535247
6.4279785 -2.2485275 -0.37666795
5.9846182 -2.0934386 -0.3797451
5.5892086 -1.9551229 -0.38180724
5.2159772 -1.8246677 -0.38128909
4.9017162 -1.7147321 -0.38215798
4.6573777 -1.629348 -0.3857789
4.4278679 -1.5490558 -0.38801289
4.1947403 -1.4674978 -0.38803038
3.9873867 -1.3950349 -0.38830295
3.8278842 -1.339231 -0.39118004
3.6794209 -1.2872894 -0.39398795
3.5273283 -1.2341471 -0.39495692
3.3936794 -1.1873858 -0.39635894
3.2600672 -1.1406374 -0.39673051
3.1521335 -1.1029351 -0.39906189
3.0552723 -1.0690433 -0.40158027
2.9657254 -1.0377688 -0.40439445
2.8798931 -1.0077343 -0.40686706
2.7941294 -0.97772384 -0.40831578
2.7083707 -0.94776809 -0.4091509
2.6226816 -0.91778207 -0.40916494
2.5443676 -0.89037681 -0.40934804
2.4769931 -0.86684829 -0.41078344
2.4169564 -0.84583783 -0.41281906
2.3569672 -0.8248902 -0.41411212
2.2933705 -0.80263269 -0.41435117
2.2261908 -0.77912116 -0.41330931
2.1663399 -0.75821704 -0.41285324
2.1065264 -0.73728234 -0.41198739
2.0612569 -0.72143805 -0.41345802
2.0160341 -0.70564961 -0.41435367
1.9635998 -0.68729663 -0.41344631
1.9184304 -0.67152411 -0.41359812
1.8769498 -0.6570043 -0.41398245
1.8426909 -0.64501238 -0.4157396
1.8048433 -0.63179958 -0.41634291
9.5873117 -3.3064177 -0.3766278
8.4639187 -2.9191537 -0.37284747
7.6248517 -2.6297646 -0.3727991
6.9961972 -2.4129455 -0.37594703
6.4414153 -2.2217305 -0.37688369
5.9973817 -2.0685773 -0.37997863
5.5940008 -1.9294459 -0.38155589
5.2312574 -1.8044329 -0.38182688
4.9091516 -1.693328 -0.38215798
4.6681242 -1.6102809 -0.38608336
4.4272246 -1.527182 -0.38736889
4.1974249 -1.447912 -0.3876906
3.9934359 -1.3776234 -0.38830295
3.8336911 -1.3225161 -0.39118004
3.6813288 -1.2699553 -0.39359516
3.5326796 -1.2187445 -0.39495692
3.3951576 -1.1713005 -0.39593092
3.2650132 -1.1264018 -0.39673051
3.1569159 -1.0891708 -0.39906189
3.0599079 -1.055702 -0.40158027
2.9665627 -1.0235549 -0.40389583
2.8842628 -0.99515885 -0.40686706
2.7983689 -0.96552283 -0.40831578
2.7161357 -0.93720299 -0.4097023
2.6266613 -0.90632975 -0.40916494
2.5482283 -0.8792665 -0.40934804
2.480752 -0.85603219 -0.41078344
2.420624 -0.83528382 -0.41281906
2.360544 -0.81459814 -0.41411212
2.2932107 -0.79136223 -0.4136945
2.2295692 -0.76940018 -0.41330931
2.1659935 -0.74750322 -0.41216168
2.1097233 -0.72808385 -0.41198739
2.0607572 -0.71118522 -0.41273138
2.019094 -0.69684631 -0.41435367
1.9702017 -0.67997223 -0.41420773
1.9213423 -0.66314697 -0.41359812
1.8725686 -0.64631289 -0.41239023
1.8382647 -0.63447297 -0.41411245
1.8075829 -0.62391847 -0.41634291
9.6201258 -3.2708366 -0.37735265
8.543088 -2.9048107 -0.37577304
7.647337 -2.6002386 -0.37334016
7.0177398 -2.3861635 -0.37654155
6.4584336 -2.1961148 -0.37731516
6.0137339 -2.0448997 -0.38044572
5.6060572 -1.9062741 -0.38180724
5.2427702 -1.7828448 -0.38209575
4.9238701 -1.6744002 -0.38273135
4.678793 -1.5911509 -0.38638785
4.4191031 -1.5028365 -0.38608086
4.2073865 -1.4308364 -0.38803038
4.0141397 -1.3651956 -0.38973317
3.8394253 -1.3057759 -0.39118004
3.6831555 -1.252629 -0.39320233
3.5379639 -1.2033187 -0.39495692
3.4002361 -1.1564753 -0.39593092
3.269897 -1.1121448 -0.39673051
3.161638 -1.0753858 -0.39906189
3.0681551 -1.0435889 -0.40206122
2.9783366 -1.0130965 -0.4048931
2.8885775 -0.98256445 -0.40686706
2.8025551 -0.95330352 -0.40831578
2.7201993 -0.92534268 -0.4097023
2.6305909 -0.89486021 -0.40916494
2.5520406 -0.86813939 -0.40934804
2.4844635 -0.8451997 -0.41078344
2.4242456 -0.82471395 -0.41281906
2.3640759 -0.80429059 -0.41411212
2.3002875 -0.78258896 -0.41435117
2.2329051 -0.75966454 -0.41330931
2.1692345 -0.73804522 -0.41216168
2.1092434 -0.71763426 -0.41127831
2.0602071 -0.7009505 -0.41200474
2.0148544 -0.68555927 -0.41286585
1.9658957 -0.66890091 -0.41268489
1.9205937 -0.65352422 -0.41281921
1.8789912 -0.63936806 -0.41318634
1.8410157 -0.62644601 -0.41411245
1.7994479 -0.6123367 -0.41384983
9.6380072 -3.2300704 -0.37749761
