# .PCD v0.7 - Point Cloud Data file format
VERSION 0.7
FIELDS x y z
SIZE 4 4 4
TYPE F F F
COUNT 1 1 1
WIDTH 1523
HEIGHT 1
VIEWPOINT 0 0 0 1 0 0 0
POINTS 1523
DATA ascii
-3.166234 1.0902057 3.9244046
-3.0804601 1.0927898 3.8491135
-3.0150223 1.0975077 3.7918944
-2.9467556 1.1010015 3.7320487
-2.8872592 1.1048545 3.6799359
-2.8248494 1.1077125 3.6252689
-2.7683103 1.1108074 3.5757136
-2.7146995 1.1135557 3.528774
-2.6698122 1.1174264 3.4895079
-2.616286 1.1191238 3.4425235
-2.5656888 1.1205776 3.3981566
-2.515142 1.121593 3.3537531
-2.4732895 1.1237956 3.3170626
-2.4343495 1.1259609 3.2829828
-2.3954458 1.127817 3.2488661
-2.3594277 1.1298574 3.2173457
-2.3206177 1.1306615 3.1832516
-2.2846937 1.1318307 3.1517162
-2.2459188 1.1318668 3.1176553
-61.102631 -19.090612 53.149437
-61.15485 -18.727068 53.214966
-61.14045 -18.348505 53.225262
-61.123535 -17.964016 53.231857
-61.124588 -17.586226 53.255547
-61.089645 -17.203655 53.246361
-61.097607 -16.829052 53.274033
-61.109131 -16.45632 53.306549
-61.087566 -16.080097 53.308636
-61.114799 -15.712461 53.352673
-61.07872 -15.328468 53.344421
-61.088108 -14.962616 53.372856
-61.072639 -14.585571 53.382137
-61.082989 -14.215374 53.41164
-61.141041 -13.862685 53.481655
-21.77776 -4.187994 19.791727
-21.496067 -3.9938688 19.557541
-21.470686 -3.8626885 19.542736
-21.102417 -3.6554198 19.234621
-21.026318 -3.5146222 19.176243
-6.2319965 -0.34774512 6.487227
-6.5425968 -0.37641186 6.7557354
-6.5455542 -0.34176466 6.7602253
-21.091316 -3.0351691 19.260567
-21.100893 -2.9129415 19.275663
-5.5661101 -0.036375225 5.9257164
-5.5122352 0.0015342534 5.8809638
-5.4729147 0.036477655 5.8487039
-5.4451323 0.068739831 5.8264732
-5.4173298 0.10108855 5.8040853
-5.3981676 0.13186499 5.7892666
-5.3877769 0.16082281 5.7818332
-5.383193 0.1893186 5.7794247
-5.375495 0.21810737 5.7744656
-5.3706961 0.24605441 5.7718396
-5.3628702 0.27467546 5.7666183
-5.3578224 0.30289271 5.7639322
-5.3586302 0.33007061 5.766139
-5.382937 0.35552654 5.7886906
-5.4218249 0.38002077 5.8240142
-5.4754305 0.40340632 5.8719363
-5.5082464 0.42935663 5.9020619
-5.5321932 0.45630109 5.9243841
-5.5206518 0.48525986 5.9159489
-5.4529095 0.51757598 5.8589578
-5.4205289 0.54735708 5.8324404
-5.4051895 0.57522917 5.8277316
-5.390254 0.60370851 5.8164358
-5.3841333 0.63174552 5.812655
-5.3838158 0.65915298 5.8138967
-5.3833284 0.68697369 5.8151546
-5.3769226 0.7148757 5.8111181
-5.3674178 0.74230897 5.8044953
-5.3667159 0.7700485 5.8054199
-5.3688631 0.797804 5.8088288
-5.3620262 0.82507598 5.8045225
-5.3639832 0.85284722 5.807766
-5.3687849 0.88072151 5.8134956
-6.7707329 0.94930702 7.0393157
-6.2955909 0.96878827 6.6262813
-5.8676462 0.9844805 6.2541714
-5.50741 0.99778676 5.9410868
-5.1767445 1.0087805 5.6534915
-4.9166431 1.0199815 5.427537
-4.653801 1.0275037 5.1988554
-4.4321451 1.0351737 5.0060806
-4.2780094 1.0454178 4.8724074
-4.0976238 1.0512933 4.7154999
-3.9378233 1.0571547 4.5765343
-3.8102841 1.0641825 4.465847
-3.6916604 1.0703129 4.3627849
-3.5789275 1.0759226 4.2648287
-3.472065 1.080842 4.1720333
-3.3653288 1.0842448 4.0791788
-3.2644439 1.0873438 3.9914837
-3.1724236 1.0903946 3.9114349
-3.0892413 1.0933455 3.8390849
-3.0177226 1.0972022 3.7770209
-2.9521122 1.1010845 3.7200389
-2.8953023 1.1053635 3.6707506
-2.8384728 1.1091576 3.6214814
-2.7846208 1.1127676 3.5747328
-2.7307987 1.115555 3.5280247
-2.6799273 1.1184111 3.4838316
-2.6232939 1.1195674 3.4345207
-2.5725036 1.1210088 3.3903747
-2.5217636 1.122012 3.3461919
-2.4797511 1.1242044 3.3096838
-2.443553 1.1269764 3.2783287
-2.4073856 1.1294744 3.246933
-2.3683395 1.1308899 3.213016
-2.3293781 1.1317021 3.1790895
-2.2904348 1.132194 3.1451607
-2.2543883 1.1329244 3.1138165
-61.60207 -19.168076 53.115532
-61.692448 -18.815018 53.212967
-61.678299 -18.434629 53.223679
-61.681953 -18.054573 53.247864
-61.654259 -17.666 53.247372
-61.636917 -17.286839 53.253418
-61.648106 -16.911165 53.283863
-61.645386 -16.532356 53.30434
-61.626915 -16.155127 53.309299
-61.663277 -15.788005 53.360962
-61.615639 -15.39899 53.3433
-61.637001 -15.034348 53.381889
-61.645119 -14.661318 53.4114
-61.638206 -14.284704 53.426292
-61.684998 -13.927244 53.486412
-21.601912 -4.1238947 19.483538
-21.421658 -3.9548724 19.337536
-21.146626 -3.7689471 19.110783
-21.126198 -3.639977 19.100931
-21.102674 -3.5106623 19.087816
-6.293705 -0.35511008 6.4984388
-6.5584393 -0.3741163 6.725575
-6.5614052 -0.33950382 6.7300482
-21.429989 -3.0801075 19.395031
-21.439728 -2.9563069 19.410282
-5.6224847 -0.041898668 5.9375095
-5.538929 0.0010216534 5.8678594
-5.4817619 0.038778961 5.8206706
-5.4538727 0.070983469 5.7985549
-5.4259629 0.10327357 5.7762828
-5.4096813 0.13358456 5.7640662
-5.4022045 0.16211432 5.7592001
-5.3946486 0.19096479 5.7542834
-5.3869219 0.21971649 5.7493548
-5.3761916 0.24830386 5.7416868
-5.3683348 0.27685228 5.7364941
-5.3632669 0.30499756 5.7338223
-5.3759103 0.33096522 5.7461605
-5.4121456 0.35535675 5.7787509
-5.4807768 0.37743476 5.8392859
-5.5345912 0.4010762 5.8869915
-5.5349774 0.42963803 5.8890505
-5.5382957 0.45801511 5.8934827
-5.4171829 0.4935182 5.7910247
-5.3965487 0.52251452 5.7749796
-5.3966093 0.55026871 5.7765689
-5.3871918 0.57764232 5.7769742
-5.3840342 0.60547304 5.775928
-5.3867664 0.63309568 5.7798171
-5.3894072 0.66034281 5.7836065
-5.3918781 0.68803728 5.7874155
-5.382494 0.71592152 5.7808523
-5.3729563 0.74328262 5.7742691
-5.3692985 0.7709524 5.7726417
-5.3685017 0.79860282 5.7734847
-5.3675542 0.8258357 5.7743139
-5.3665676 0.85348451 5.7749925
-5.3654852 0.88113165 5.775588
-5.370163 0.90853357 5.7812862
-6.3105793 0.96965611 6.5971022
-5.8987222 0.98596501 6.2421994
-5.5312166 0.99899054 5.9255753
-5.1904497 1.0094812 5.6317549
-4.9234686 1.0202616 5.4018226
-4.6625805 1.0278734 5.1768456
-4.4548163 1.0365202 4.9978228
-4.2912607 1.0461009 4.8571529
-4.1131344 1.0521873 4.7035894
-3.9468439 1.0575067 4.5602093
-3.8217635 1.064774 4.4526348
-3.7056293 1.0711808 4.3526468
-3.592468 1.0767862 4.2551823
-3.485199 1.0817025 4.1628532
-3.3721893 1.084397 4.0653553
-3.2709236 1.0874584 3.9781013
-3.1814873 1.0908613 3.9010086
-3.09799 1.093796 3.8290217
-3.0262003 1.0976386 3.7672703
-2.9632664 1.1019492 3.7131267
-2.9033165 1.1057762 3.6615345
-2.8433518 1.1090829 3.6099637
-2.7863796 1.1121707 3.5609021
-2.7352743 1.1154243 3.516979
-2.6871264 1.1187814 3.4755564
-2.6273668 1.1193802 3.4239464
-2.5763865 1.1207943 3.3800232
-2.5283635 1.1223514 3.3386073
-2.4861917 1.1245358 3.3022828
-2.4440536 1.1260676 3.2660022
-2.4077549 1.1285232 3.2347672
-2.3714626 1.1305478 3.2035623
-2.3323562 1.1313349 3.1698074
-2.2990489 1.1331749 3.1411228
-2.2686384 1.1353241 3.1150038
-62.120285 -19.248291 53.093403
-62.027962 -18.834787 53.03743
-62.328423 -18.552546 53.311535
-62.166313 -18.118832 53.197067
-62.240879 -17.759533 53.282497
-62.314316 -17.405014 53.364845
-62.220718 -16.996227 53.307514
-62.191956 -16.607914 53.30629
-62.17075 -16.228004 53.309196
-62.263168 -15.874063 53.407722
-62.239105 -15.489048 53.410328
-62.249096 -15.119042 53.439339
-62.236984 -14.73853 53.451912
-62.224434 -14.3583 53.462219
-21.351711 -4.1678357 19.109089
-21.332649 -4.0375838 19.100636
-21.304592 -3.9055839 19.083967
-21.155088 -3.7489891 18.964911
-21.075596 -3.6076996 18.905428
-20.89855 -3.4469683 18.763065
-6.3438382 -0.35979462 6.4992843
-6.5711975 -0.37097058 6.6929159
-6.5741706 -0.33641016 6.6973691
-6.5591631 -0.29905552 6.6867876
-6.5471039 -0.26189995 6.6785412
-5.6701927 -0.045691475 5.9414129
-5.5478506 0.0036050975 5.8396068
-5.4934273 0.040834844 5.7951655
-5.462471 0.073441058 5.7706604
-5.434453 0.10567129 5.7485046
-5.4181089 0.13592511 5.7363529
-5.4106026 0.16440073 5.731514
-5.4000492 0.19356883 5.7241106
-5.3922911 0.22224772 5.7192078
-5.378551 0.25109994 5.7090626
-5.3706617 0.2795577 5.7038956
-5.3685427 0.30731106 5.7037592
-5.3871698 0.33264303 5.7210789
-5.54531 0.34607834 5.8569622
-5.5577765 0.37359354 5.8692832
-5.5702105 0.40083614 5.8814163
-5.5676289 0.4297182 5.8809533
-5.4580574 0.46562028 5.7892981
-5.3959122 0.49695304 5.7379217
-5.3960009 0.52459061 5.739666
-5.3960619 0.55223793 5.7412477
-5.3866539 0.57950497 5.7416725
-5.3834863 0.60722804 5.740634
-5.3951359 0.63447618 5.7521172
-5.4007568 0.66159928 5.7584305
-5.3973017 0.68936694 5.7571478
-5.390852 0.71714139 5.7531629
-5.3812809 0.74444759 5.7466178
-5.3835454 0.77206135 5.7500854
-5.3797798 0.79967678 5.7483892
-5.3817973 0.82690871 5.7517633
-5.374877 0.85443485 5.7473612
-5.3737936 0.88202828 5.7479601
-5.3695993 0.90911549 5.746007
-5.3742523 0.93689722 5.7515287
-5.9297771 0.98769462 6.2300434
-5.537199 0.99957424 5.8946753
-5.2188382 1.0111811 5.6226912
-4.9449325 1.0216155 5.3888373
-4.691937 1.0297813 5.1726313
-4.4745159 1.0378314 4.9868832
-4.3073888 1.0471783 4.8443832
-4.1315465 1.0534866 4.6941404
-3.9675817 1.0590663 4.5540295
-3.8361249 1.0657911 4.4419141
-3.7136538 1.0715866 4.3373461
-3.600069 1.077147 4.240376
-3.4894528 1.0816839 4.1459732
-3.3789668 1.0846692 4.0515113
-3.2773232 1.0876886 3.9646997
-3.1875527 1.0910522 3.8879983
-3.1037436 1.0939491 3.8163764
-3.0346243 1.0981808 3.7574787
-2.9743898 1.1029179 3.7061484
-2.9142127 1.1067476 3.6548171
-2.8510895 1.1095808 3.60097
-2.7968326 1.1131494 3.5546932
-2.7455335 1.116408 3.5109925
-2.6913528 1.1187119 3.4647098
-2.6342936 1.119826 3.4158955
-2.5860422 1.1217923 3.3747272
-2.5407536 1.123938 3.3360512
-2.4984186 1.1261473 3.2999086
-2.4561172 1.1277034 3.2638092
-2.4138575 1.1289158 3.227675
-2.380336 1.131584 3.1991549
-2.3439841 1.1330488 3.1680942
-2.3076448 1.1342286 3.1370287
-2.2742186 1.1356831 3.1085186
-62.673813 -19.343903 53.095943
-63.000317 -18.680836 53.410896
-63.057487 -18.311769 53.479713
-62.813732 -17.852669 53.300591
-62.963963 -17.518536 53.446274
-62.776524 -17.080225 53.31181
-62.768509 -16.695757 53.32814
-62.75634 -16.31624 53.338833
-62.864098 -15.964118 53.449547
-62.910885 -15.595501 53.51141
-62.885925 -15.213795 53.511391
-62.84462 -14.823446 53.499863
-62.811657 -14.435899 53.493389
-21.271437 -4.1268663 18.888794
-21.281746 -4.0044312 18.904907
-21.418987 -3.9107554 19.026304
-21.200954 -3.7389312 18.851179
-21.863743 -3.7574444 19.412033
-21.784145 -3.6129079 19.352623
-20.989738 -3.3264146 18.69635
-6.583745 -0.36821991 6.6601887
-6.5541124 -0.32748917 6.6373477
-6.5657291 -0.29531544 6.649138
-6.5773621 -0.2624957 6.6608052
-5.6764207 -0.042864412 5.9101057
-5.5120211 0.013031006 5.7739649
-5.4960213 0.043949932 5.7621245
-5.4679203 0.076020747 5.7402401
-5.442771 0.10775018 5.720695
-5.4233899 0.13835537 5.7061119
-5.4128761 0.1671496 5.6987996
-5.4022818 0.19622716 5.6914349
-5.3915157 0.22517031 5.6840549
-5.3807001 0.25357828 5.676465
-5.3727794 0.28194588 5.6713257
-5.3825722 0.30840451 5.6812215
-5.416172 0.33230299 5.7110038
-5.5391302 0.34902942 5.8160787
-5.5874186 0.37342525 5.8584743
-5.5939379 0.40120152 5.8655329
-5.4273424 0.44183093 5.7268019
-5.4127836 0.47052577 5.7160559
-5.3981228 0.49863777 5.7051921
-5.3952312 0.52634609 5.7044134
-5.3982763 0.55374455 5.7085085
-5.3918562 0.58079815 5.7114792
-5.3886795 0.60844934 5.7104516
-5.4003749 0.63562822 5.72188
-5.4119782 0.66253936 5.7332158
-5.4204311 0.69005644 5.7420506
-5.4020414 0.71800834 5.7279902
-5.3983946 0.74524128 5.7265406
-5.3976917 0.77285588 5.7274704
-5.3909359 0.80043525 5.7232628
-5.3870096 0.82756233 5.7215695
-5.3800678 0.85501605 5.7171965
-5.3789845 0.88253784 5.7177992
-5.3747802 0.909554 5.7158632
-5.370533 0.93694717 5.7137737
-5.4167376 0.96640706 5.7546201
-5.5073528 0.99813163 5.8334293
-5.2442775 1.0124242 5.61092
-4.9604387 1.0223336 5.3706703
-4.7154093 1.0310396 5.1631618
-4.4882717 1.0384684 4.9707704
-4.3205228 1.0477862 4.8290014
-4.1469913 1.0543119 4.6820574
-3.9913068 1.0606775 4.5502539
-3.8504682 1.066601 4.4311209
-3.7245786 1.0720919 4.3245578
-3.6076117 1.0773143 4.225554
-3.493628 1.081478 4.1291056
-3.3856902 1.0847631 4.0376558
-3.2866247 1.0881186 3.9538174
-3.1994724 1.091856 3.8800359
-3.1183 1.095163 3.811307
-3.054817 1.1002671 3.7577634
-2.9855108 1.1037378 3.6991153
-2.9251075 1.1075748 3.648046
-2.8588052 1.1099374 3.5919495
-2.8043463 1.1134965 3.5459101
-2.7499185 1.1162338 3.4999106
-2.6984744 1.1190411 3.4563873
-2.6412027 1.120145 3.4078221
-2.5927715 1.1221031 3.3668647
-2.5473146 1.1242408 3.3283863
-2.504822 1.1264429 3.292429
-2.4623632 1.1279918 3.2565143
-2.4170256 1.1285614 3.2180495
-2.3833823 1.1312063 3.1896772
-2.349813 1.1333178 3.1612892
-2.3162506 1.135179 3.1328931
-2.2768788 1.1352347 3.0995088
-63.240974 -19.438917 53.105076
-63.371422 -19.092218 53.233704
-63.443169 -18.73251 53.315659
-63.286377 -18.296753 53.208168
-63.341537 -17.927336 53.276745
-63.395508 -17.56299 53.342178
-63.304726 -17.151379 53.288742
-63.317566 -16.770926 53.322418
-63.346901 -16.400873 53.367489
-63.369759 -16.023607 53.407532
-63.399212 -15.648688 53.454834
-63.359581 -15.261686 53.442966
-63.368591 -14.882475 53.473358
-63.359402 -14.498962 53.486839
-21.397121 -4.133913 18.841036
-21.440109 -4.0187416 18.884098
-21.483002 -3.9030983 18.926493
-21.664795 -3.8195205 19.083694
-21.014816 -3.5541797 18.553423
-21.198822 -3.470118 18.712515
-21.069996 -3.322741 18.613136
-6.3730812 -0.32137567 6.4426708
-6.524745 -0.31649241 6.5702453
-6.5572219 -0.28844467 6.5992284
-6.5927129 -0.26003835 6.6305904
-22.368227 -2.93717 19.724812
-5.5145001 0.016557544 5.7409534
-5.498436 0.047384083 5.7291722
-5.4761968 0.078476876 5.7123628
-5.4479666 0.11057147 5.6904383
-5.4285116 0.14110109 5.6759324
-5.414969 0.17021209 5.666172
-5.3983545 0.19994119 5.6538682
-5.3875446 0.22875758 5.646523
-5.3766842 0.2570405 5.6389694
-5.3687305 0.28528184 5.633853
-5.381547 0.31131786 5.6461892
-5.3943276 0.33710122 5.6583447
-5.5835562 0.34778875 5.8178053
-5.6050959 0.37458432 5.8375139
-5.5757265 0.40512249 5.8145437
-5.4294662 0.44401258 5.6940327
-5.4028807 0.47339264 5.6733346
-5.3911586 0.50116622 5.6650281
-5.3942432 0.52841336 5.6692619
-5.4451942 0.55344546 5.7134271
-5.4118385 0.58178651 5.6938782
-5.4056597 0.60956085 5.6903543
-5.4233809 0.63656604 5.7067537
-5.426054 0.66372705 5.7105045
-5.4375296 0.69117558 5.7218137
-5.4190726 0.71912313 5.7078333
-5.4243822 0.74630284 5.7139411
-5.417697 0.77396989 5.7098465
-5.4139051 0.80158377 5.7081842
-5.3980122 0.82860208 5.6964455
-5.3910465 0.85601836 5.692101
-5.3869739 0.88343304 5.6901908
-5.3797717 0.91030669 5.6857548
-5.3725276 0.93752038 5.6811647
-5.3830962 0.96540725 5.6915979
-5.4501982 0.99571836 5.7498655
-5.2637153 1.0136613 5.5939651
-4.9847913 1.0238754 5.3599901
-4.7418346 1.0327702 5.1560698
-4.5108757 1.0400021 4.9621515
-4.3335719 1.0486403 4.81356
-4.1594005 1.0551239 4.6673737
-4.0031414 1.061452 4.5362501
-3.8677304 1.0679096 4.4227667
-3.7354302 1.0728022 4.311718
-3.6180315 1.0779961 4.2132249
-3.5036278 1.0821323 4.1172743
-3.3982587 1.0857459 4.0288115
-3.2988265 1.0890952 3.9454052
-3.2083874 1.0924393 3.8694882
-3.1269152 1.0957266 3.8011136
-3.0572796 1.099965 3.7428193
-2.9906788 1.1038265 3.6869884
-2.9330106 1.1080918 3.638696
-2.8723705 1.1113946 3.5879121
-2.8177066 1.1149759 3.5421085
-2.7601247 1.1172217 3.493835
-2.7055418 1.1195034 3.4480264
-2.6480589 1.1205935 3.3997111
-2.5994494 1.12254 3.3589649
-2.5508854 1.1240832 3.3181794
-2.5111752 1.1268585 3.2849131
-2.4685602 1.1283972 3.2491841
-2.4289179 1.130228 3.2159214
-2.3892879 1.1315926 3.1826913
-2.3555949 1.1336961 3.1544499
-2.3160625 1.1341722 3.1212039
-2.2707114 1.1327711 3.0830011
-63.850113 -19.549818 53.143204
-63.846085 -19.15807 53.161503
-63.900673 -18.791435 53.229019
-63.905636 -18.403606 53.254581
-63.896477 -18.01255 53.270432
-63.880077 -17.625631 53.278175
-63.874893 -17.236992 53.295341
-63.885124 -16.853687 53.326885
-63.900055 -16.477612 53.360088
-63.902534 -16.09288 53.383408
-63.840458 -15.692161 53.355774
-63.857216 -15.318306 53.390377
-63.899132 -14.945635 53.447701
-21.657259 -4.2983904 18.895683
-21.686176 -4.1806078 18.926249
-21.500414 -4.0112615 18.781685
-21.501787 -3.8863246 18.789728
-21.547203 -3.7730389 18.833771
-21.016941 -3.5349874 18.406391
-21.132996 -3.4371212 18.508348
-21.057335 -3.3013787 18.453503
-21.157747 -3.1991017 18.542694
-6.453063 -0.29787147 6.4691095
-6.5244617 -0.27746767 6.529808
-6.5959311 -0.25572479 6.5904722
-6.5686464 -0.21626148 6.5699525
-5.5347252 0.017007053 5.7227573
-5.503633 0.050142646 5.6987185
-5.4783144 0.081602842 5.6795301
-5.4529743 0.1131795 5.6601901
-5.4304485 0.14404052 5.6432896
-5.4138546 0.17345007 5.6311073
-5.3971758 0.20306942 5.6188655
-5.3863239 0.23177716 5.611558
-5.3784218 0.25961748 5.6065202
-5.3764391 0.28713277 5.606391
-5.3923044 0.31281793 5.6211486
-5.5492468 0.32500711 5.7524219
-5.6250787 0.34661025 5.8167186
-5.637692 0.37429315 5.8288884
-5.4249988 0.41890898 5.6543546
-5.4073586 0.4476732 5.6414008
-5.3896866 0.47623509 5.6282721
-5.3899379 0.50312591 5.6299672
-5.4050527 0.52963281 5.6441469
-5.4167438 0.58318532 5.6636858
-5.4255543 0.61035991 5.6726704
-5.4373379 0.63756168 5.6839972
-5.4400225 0.66470563 5.6877365
-5.4425378 0.69229537 5.6914959
-5.4300175 0.72009903 5.6825933
-5.4353499 0.74724472 5.6886768
-5.425642 0.77487379 5.6821094
-5.4338379 0.80250871 5.6904702
-5.420886 0.82957768 5.681304
-5.4138947 0.85702825 5.6769915
-5.3948188 0.88411784 5.6625824
-5.3816004 0.91075814 5.6531687
-5.3773308 0.937989 5.6511135
-5.3849478 0.96568131 5.6589952
-5.3505011 0.99106467 5.6318092
-5.2741222 1.0142168 5.569397
-5.0061493 1.025054 5.3466597
-4.7533293 1.0333486 5.1362848
-4.5245171 1.0407313 4.9458804
-4.3435774 1.0491033 4.795558
-4.1687698 1.0555354 4.6501331
-4.0089555 1.0615484 4.5171871
-3.8760371 1.0682284 4.4068003
-3.7492197 1.0736818 4.3013372
-3.6313906 1.0788705 4.2033567
-3.5165672 1.0830021 4.1079054
-3.4078331 1.0862575 4.0173998
-3.3080373 1.0895873 3.934427
-3.2202415 1.0933044 3.8614075
-3.1444149 1.0974092 3.7983911
-3.0745187 1.1016872 3.7403994
-3.0047002 1.1051455 3.6823566
-2.9408846 1.1085122 3.6293159
-2.8770587 1.1113244 3.5762978
-2.822197 1.1148775 3.5307341
-2.7673669 1.1176084 3.4852097
-2.7155418 1.1204107 3.4421358
-2.6608009 1.1220562 3.3965657
-2.6061041 1.1228951 3.3510413
-2.5544128 1.1238447 3.3079748
-2.5145597 1.1265947 3.2748833
-2.4747365 1.1287267 3.2418318
-2.4349494 1.1305498 3.2087426
-2.3922353 1.1312523 3.1731973
-2.3584218 1.1333319 3.1451044
-2.3216815 1.1344717 3.1145179
-2.2878876 1.1358885 3.0864491
-64.440628 -19.651039 53.160904
-64.395607 -19.244156 53.146263
-64.489113 -18.887508 53.244904
-64.482605 -18.493982 53.261276
-64.470772 -18.100002 53.275143
-64.466469 -17.714525 53.292889
-64.446747 -17.319565 53.298443
-64.492935 -16.944143 53.359123
-64.448807 -16.549702 53.344528
-64.493179 -16.174156 53.401852
-64.434143 -15.772094 53.377239
-64.454208 -15.396873 53.414509
-64.472717 -15.016112 53.452675
-21.786322 -4.3063416 18.848183
-21.725876 -4.1671257 18.806034
-21.464785 -3.9808753 18.601648
-21.322701 -3.8244863 18.49313
-21.099096 -3.6540284 18.318169
-21.018253 -3.5148988 18.259789
-21.026951 -3.3952401 18.273569
-21.061714 -3.2827177 18.309042
-21.000675 -3.1494293 18.266068
-6.4555602 -0.29312325 6.429738
-6.5272093 -0.27280647 6.4901114
-6.5989294 -0.25115228 6.5504503
-6.5925498 -0.21537839 6.5471654
-21.314877 -2.6012149 18.556646
-5.6089697 0.0091099739 5.7486038
-5.514677 0.052196562 5.673223
-5.4892664 0.083615661 5.6541405
-5.460825 0.11557391 5.6324501
-5.4352083 0.14678159 5.613184
-5.4155421 0.17650515 5.5986066
-5.3987989 0.20603175 5.5864286
-5.3909154 0.23429586 5.5816231
-5.3829823 0.26206431 5.5766139
-5.3840027 0.28919101 5.5789537
-5.3818474 0.31662261 5.578826
-5.6237249 0.32080138 5.7785544
-5.6486063 0.34724918 5.8005376
-5.6371541 0.37694061 5.7928739
-5.4387627 0.42025647 5.631629
-5.4090004 0.44984239 5.6088505
-5.3912635 0.47831097 5.5957923
-5.3915157 0.50511408 5.5974808
-5.463974 0.52853811 5.658679
-5.4429331 0.55716509 5.6429033
-5.4516034 0.58356714 5.6583652
-5.4514079 0.61116493 5.6598649
-5.4421444 0.63903141 5.653749
-5.4388151 0.66624451 5.6525011
-5.4383297 0.69377947 5.653758
-5.4317913 0.72138798 5.649879
-5.4341345 0.74846327 5.6534476
-5.4243941 0.7759831 5.6469178
-5.4356332 0.80353242 5.6577282
-5.4286585 0.83058488 5.6535954
-5.4276628 0.85808992 5.6542916
-5.4085183 0.88515699 5.6399641
-5.3952541 0.91177678 5.6306086
-5.3849568 0.93877244 5.6235886
-5.3805809 0.96590972 5.6214705
-5.3490214 0.99130529 5.5969238
-5.2903962 1.0152998 5.5497942
-5.024456 1.0262516 5.3307185
-4.7677169 1.034306 5.1189556
-4.5410757 1.0418479 4.9320421
-4.3684769 1.0508908 4.7899852
-4.1810398 1.0563519 4.635355
-4.0236425 1.0625938 4.5055981
-3.8812561 1.0684037 4.3883171
-3.7599692 1.0743971 4.2883911
-3.6447053 1.079878 4.1934152
-3.5324545 1.0843381 4.100955
-3.4233232 1.0876021 4.0109229
-3.3231621 1.0909433 3.9283855
-3.23206 1.0942833 3.8532586
-3.1529732 1.0979787 3.7880843
-3.079843 1.1018132 3.7279093
-3.0127528 1.1056812 3.6726594
-2.9487057 1.1090326 3.6198969
-2.8876235 1.1123087 3.5696435
-2.8355336 1.1163634 3.5268033
-2.7834709 1.1196303 3.4840007
-2.7284827 1.1219411 3.4386668
-2.6705732 1.1230589 3.3908515
-2.6156759 1.123902 3.3455653
-2.5667553 1.1254416 3.305203
-2.529711 1.1288195 3.2747622
-2.4897354 1.130994 3.2418814
-2.4438903 1.1315856 3.2040086
-2.4010191 1.1322954 3.1686487
-2.3670802 1.134384 3.1407018
-2.330204 1.1355327 3.1102743
-2.2962844 1.1369586 3.0823517
-65.04686 -19.75964 53.18573
-64.966499 -19.339407 53.143265
-65.075508 -18.985315 53.253746
-65.054474 -18.585224 53.258659
-65.025101 -18.183973 53.258667
-65.015137 -17.794893 53.272003
-65.013496 -17.403112 53.29229
-65.048225 -17.022398 53.343559
-65.001244 -16.625267 53.327087
-65.034111 -16.24465 53.374958
-65.001991 -15.84772 53.37249
-64.989532 -15.462223 53.383587
-64.963501 -15.068586 53.385914
-21.762657 -4.2784495 18.677059
-21.441437 -4.0786271 18.425583
-21.481796 -3.9637945 18.465511
-21.342171 -3.8084352 18.359978
-21.147739 -3.6448414 18.21011
-21.126633 -3.5185351 18.200424
-21.048288 -3.3808074 18.143997
-21.092171 -3.2703681 18.186552
-21.072989 -3.1454692 18.177765
-20.984163 -3.0078897 18.112764
-6.5868793 -0.27877596 6.496614
-6.5896235 -0.24473257 6.5007358
-6.6073074 -0.21321987 6.5169296
-6.5192881 -0.16477239 6.4478292
-5.5285902 0.053580701 5.6501236
-5.4970551 0.085857749 5.6262665
-5.4685106 0.1177572 5.6046953
-5.4397817 0.14931144 5.5830898
-5.4200425 0.17896122 5.5685911
-5.4062576 0.20804414 5.558929
-5.4013672 0.23590164 5.5566034
-5.3964272 0.26329923 5.5540776
-5.3974519 0.29040834 5.5564117
-5.4013376 0.31722435 5.561203
-5.671299 0.31893688 5.7819862
-5.6660304 0.34820181 5.779295
-5.6454639 0.37862802 5.7643027
-5.4040079 0.42504618 5.5694733
-5.4013667 0.45243067 5.5689592
-5.395668 0.4799833 5.5658216
-5.3989472 0.50654131 5.5699687
-5.4111471 0.53306961 5.581542
-5.5590777 0.58082235 5.71208
-5.4409542 0.61301613 5.6172476
-5.4286361 0.64080667 5.6086922
-5.431344 0.66770601 5.6123953
-5.4308615 0.69509828 5.6136484
-5.4303489 0.72249663 5.6147413
-5.4236379 0.74951375 5.6108713
-5.4199114 0.77687585 5.6093292
-5.4281745 0.80428243 5.6176109
-5.4151402 0.83111769 5.608551
-5.4201884 0.85855532 5.6142011
-5.4190979 0.88591588 5.614819
-5.3997526 0.9123162 5.600564
-5.3894224 0.93923855 5.5935884
-5.3850355 0.96630365 5.5914884
-5.3563843 0.99176693 5.5695581
-5.3126259 1.0165057 5.5350771
-5.0397015 1.0270817 5.3122053
-4.7820401 1.035086 5.1015635
-4.5485625 1.0421536 4.9106817
-4.3813667 1.0515926 4.7743368
-4.1932564 1.0570168 4.6205244
-4.0443153 1.0640324 4.4988909
-3.9014137 1.0698676 4.3822308
-3.7676697 1.0746763 4.2729216
-3.651993 1.0801167 4.1784496
-3.5453434 1.0852147 4.0914345
-3.4328187 1.0881188 3.9994018
-3.3322988 1.0914404 3.9173017
-3.2378736 1.0943706 3.8400965
-3.1614981 1.0984424 3.7777433
-3.0910974 1.1026896 3.7203627
-3.0207744 1.1061174 3.662931
-2.9564974 1.1094563 3.6104484
-2.8922105 1.1122406 3.5579886
-2.8399358 1.1162672 3.5153766
-2.7876883 1.1195066 3.4728024
-2.7384624 1.1228542 3.4326501
-2.6833191 1.1245289 3.3875558
-2.622272 1.1242603 3.3375709
-2.5761468 1.1263758 3.2998898
-2.5359983 1.1291611 3.2671432
-2.4958797 1.1313279 3.234437
-2.4469061 1.1312724 3.1943007
-2.4068444 1.1326118 3.1615915
-2.3727837 1.1346939 3.1337934
-2.3416846 1.137216 3.1084461
-2.3076377 1.1386703 3.0806689
-65.64315 -19.861376 53.197392
-65.574768 -19.442726 53.165108
-65.642853 -19.073675 53.242485
-65.628021 -18.673397 53.25256
-65.601845 -18.271015 53.25544
-65.61602 -17.886806 53.28812
-65.596779 -17.487801 53.294556
-65.631943 -17.105007 53.346024
-65.600037 -16.709877 53.341988
-65.618347 -16.323141 53.378151
-65.577408 -15.921824 53.369011
-65.346268 -15.479228 53.20623
-22.008301 -4.4419017 18.714943
-21.792051 -4.2626023 18.549681
-21.550793 -4.0820861 18.364233
-21.579296 -3.964293 18.394419
-21.607681 -3.846205 18.423925
-21.195919 -3.634738 18.10207
-21.262085 -3.5269217 18.162203
-21.171444 -3.386384 18.096537
-21.158218 -3.2642837 18.093147
-21.335087 -3.1771262 18.24123
-19.440784 -2.7021503 16.732964
-6.5440502 -0.2659339 6.4205542
-6.5467739 -0.23226064 6.4246187
-6.6219311 -0.21079859 6.4866858
-6.6031561 -0.17372915 6.4736905
-5.5647602 0.023559809 5.6433635
-5.5333257 0.056550503 5.619719
-5.5016756 0.088750213 5.5959921
-5.4730253 0.12057193 5.5745373
-5.4472213 0.15164442 5.5554819
-5.4274092 0.18123706 5.5410638
-5.4135737 0.21026342 5.531456
-5.405633 0.23841758 5.5267096
-5.400672 0.26574406 5.5241985
-5.4016981 0.29278243 5.5265212
-5.4055963 0.31952834 5.5312891
-5.6795497 0.32095528 5.7533312
-5.6742611 0.35016564 5.750658
-5.6111221 0.38396248 5.7015061
-5.4295235 0.42547661 5.5566559
-5.4056201 0.45438108 5.5390167
-5.4029374 0.48166937 5.5383487
-5.4092646 0.50800127 5.5449286
-5.4184723 0.53465331 5.5539937
-5.6979208 0.54908335 5.78123
-5.4304085 0.58779156 5.5733213
-5.4393196 0.61475837 5.5821776
-5.4360614 0.64218229 5.5810466
-5.4327126 0.66916573 5.5798168
-5.4352646 0.69641852 5.5835271
-5.4317183 0.72377789 5.5821576
-5.4249864 0.75070566 5.5783134
-5.4212494 0.77797759 5.5767841
-5.4174166 0.80521381 5.5751758
-5.4922543 0.83300102 5.6376019
-5.5639849 0.86203301 5.6974401
-5.50529 0.88873547 5.6512609
-5.4616232 0.91480207 5.617384
-5.3997612 0.9401294 5.5685544
-5.3923321 0.96703053 5.5640078
-5.372663 0.99286878 5.5495973
-5.3317752 1.0177596 5.5177727
-5.0639277 1.0286484 5.3010235
-4.7962751 1.0360494 5.0841093
-4.5680108 1.0434921 4.8991785
-4.4032383 1.05316 4.7660279
-4.2023773 1.0575874 4.6031747
-4.0589433 1.0650868 4.4871221
-3.9155316 1.0709056 4.3710852
-3.7843251 1.0760037 4.2648249
-3.6652203 1.0811298 4.1683922
-3.5551777 1.0858804 4.0793777
-3.4452624 1.0891143 3.9903002
-3.3413749 1.0920547 3.9061747
-3.2496197 1.0953547 3.8318448
-3.1699662 1.0990155 3.7673624
-3.096313 1.102818 3.7078269
-3.0227411 1.1057653 3.6482413
-2.9642358 1.1099799 3.6009617
-2.8997207 1.1127487 3.5487828
-2.8502536 1.1172612 3.508858
-2.7948265 1.1199895 3.4640527
-2.7454257 1.1233255 3.4241152
-2.6870987 1.1244357 3.3768053
-2.6318059 1.1252719 3.3319983
-2.5855138 1.127394 3.2945175
-2.5422404 1.1295835 3.2594919
-2.4990025 1.1311195 3.2245085
-2.4528313 1.1316732 3.1870379
-2.4155984 1.1336592 3.1569536
-2.3814135 1.1357503 3.1293025
-2.3442698 1.1369005 3.099196
-2.3071425 1.1376204 3.0691233
-66.15387 -19.938396 53.136429
-66.175049 -19.545935 53.175072
-66.154144 -19.147434 53.182144
-66.169434 -18.75444 53.216091
-66.158417 -18.354618 53.231178
-66.202896 -17.977104 53.287701
-66.153931 -17.567606 53.270981
-66.231514 -17.194418 53.355705
-66.148773 -16.783457 53.311958
-66.035217 -16.360138 53.244148
-22.085054 -4.6917844 18.609406
-22.13084 -4.5773277 18.652473
-22.164124 -4.4576344 18.686405
-21.603655 -4.19591 18.250919
-21.659901 -4.0864396 18.302109
-21.715693 -3.9745905 18.353666
-21.623451 -3.8294532 18.287619
-23.077265 -4.0198345 19.444223
-21.442844 -3.5456605 18.158873
-23.094143 -3.7583995 19.47283
-19.450361 -2.9092247 16.59491
-19.254475 -2.7611248 16.445812
-21.214945 -3.0153456 18.005747
-6.4521489 -0.24466194 6.3064737
-6.4548306 -0.2116414 6.3104477
-6.5969429 -0.2020184 6.4250765
-6.6509237 -0.17701393 6.4699636
-5.5439463 0.058393687 5.594151
-5.5091457 0.090991154 5.5681434
-5.4773536 0.12317525 5.5443916
-5.4514561 0.15417169 5.5254416
-5.4346137 0.18330465 5.5135241
-5.42377 0.21190687 5.5063944
-5.415801 0.24002402 5.5016789
-5.4108229 0.26731449 5.499187
-5.4088078 0.29463261 5.4990754
-5.4157648 0.32102859 5.5062504
-5.6602268 0.32527325 5.7027922
-5.6305475 0.35636601 5.6806736
-5.6006904 0.38710716 5.6585321
-5.4428234 0.42661351 5.5339365
-5.4096971 0.45612252 5.5090947
-5.4070053 0.48333907 5.5084338
-5.4103079 0.50977576 5.5125442
-5.4104066 0.53680807 5.5142474
-5.6573181 0.55266881 5.7134175
-5.4315691 0.58930492 5.5408163
-5.4435592 0.6160816 5.5520735
-5.4433365 0.64334857 5.5533986
-5.4399772 0.67027867 5.5521808
-5.4425411 0.69747853 5.5558782
-5.4328957 0.72484732 5.5496264
-5.4291878 0.75167167 5.5482564
-5.4223971 0.77886802 5.5442924
-5.4215975 0.80603588 5.5451479
-5.4510717 0.83318269 5.5704947
-5.5382757 0.86217427 5.6422634
-5.558445 0.89055586 5.6600585
-5.4173379 0.91387475 5.547935
-5.4099789 0.94081348 5.543499
-5.3994884 0.96754968 5.5365329
-5.3797545 0.99333143 5.5222073
-5.3478351 1.0186504 5.4979177
-5.082078 1.0296676 5.284791
-4.8134804 1.0370338 5.0690451
-4.5874419 1.0446659 4.8875637
-4.4069295 1.0531664 4.7428708
-4.2174835 1.0585086 4.5907044
-4.0735421 1.0659977 4.4752779
-3.9205422 1.0709443 4.3525105
-3.7979524 1.0768958 4.254179
-3.6784256 1.0820166 4.1582661
-3.564971 1.086423 4.0672812
-3.454668 1.0896354 3.9786832
-3.350414 1.0925553 3.8950117
-3.2583351 1.0958376 3.8210824
-3.1784008 1.0994828 3.7569475
-3.1075008 1.1036991 3.7001827
-3.0366783 1.1070961 3.6433663
-2.9719448 1.1104069 3.5914454
-2.9041953 1.1126816 3.5371015
-2.8455424 1.1156701 3.4900556
-2.7929316 1.1188341 3.4479408
-2.7493629 1.1231755 3.4131103
-2.6938303 1.1248083 3.3684993
-2.6383424 1.1256337 3.3239338
-2.5918872 1.1277466 3.2866549
-2.548461 1.1299276 3.2518184
-2.5020833 1.1308336 3.2145848
-2.4587364 1.1320001 3.1797552
-2.4183908 1.1333219 3.1473966
-2.3870668 1.1360632 3.1223311
-2.349792 1.137206 3.0923872
-2.3125339 1.1379187 3.0624762
-66.510239 -19.96327 52.951515
-66.525635 -19.568205 52.985531
-66.534744 -19.178104 53.016159
-66.523239 -18.77619 53.02916
-66.548347 -18.386139 53.07251
-66.54805 -17.994825 53.093834
-66.586243 -17.609026 53.145493
-66.637184 -17.22723 53.208939
-66.488022 -16.79755 53.113956
-22.194405 -4.8237801 18.536289
-22.195496 -4.6959114 18.544813
-22.202215 -4.5714407 18.55702
-22.229572 -4.4502859 18.586079
-21.769958 -4.2131777 18.233473
-21.759895 -4.0877309 18.232384
-21.74929 -3.9606686 18.231548
-21.629435 -3.8097863 18.144505
-21.69978 -3.7030253 18.20636
-21.454189 -3.5280666 18.021193
-21.317421 -3.3780818 17.920639
-19.448627 -2.8916163 16.461058
-19.327982 -2.7584188 16.372404
-19.754017 -2.7276552 16.713091
-6.5084076 -0.24982296 6.310432
-6.511116 -0.21658984 6.3144188
-6.5106611 -0.18282779 6.315918
-6.6348343 -0.16971147 6.4156151
-5.5544472 0.060449645 5.5685868
-5.5195241 0.093003869 5.5427265
-5.4845695 0.12556534 5.516705
-5.4555292 0.15690508 5.4954562
-5.4386244 0.18596412 5.4836054
-5.4338455 0.2137579 5.4813342
-5.425848 0.24183756 5.4766498
-5.4177971 0.2694242 5.4717636
-5.4127178 0.29700303 5.4692421
-5.4380307 0.32154948 5.4908733
-5.6130571 0.33230883 5.6307631
-5.5985475 0.36171412 5.6208358
-5.5318975 0.39508668 5.5697665
-5.452961 0.42818648 5.5087667
-5.4136038 0.45806855 5.4792223
-5.4170175 0.48483232 5.4834142
-5.414216 0.51158059 5.4826589
-5.4265475 0.53792125 5.4940586
-5.4357896 0.56455112 5.502883
-5.4692049 0.58958411 5.5375447
-5.462903 0.61710089 5.5341702
-5.4565678 0.64455414 5.5306325
-5.4531975 0.67146587 5.529428
-5.4527159 0.69869745 5.5306792
-5.443038 0.72602826 5.5244684
-5.4332104 0.75284374 5.5182424
-5.4325056 0.77997577 5.519177
-5.4347582 0.80712986 5.52247
-5.458231 0.83418691 5.5428133
-5.4358664 0.86107463 5.5264611
-5.4927511 0.88967025 5.5734024
-5.4121857 0.9143396 5.510644
-5.4109068 0.94137329 5.5111146
-5.4064827 0.96827513 5.5090694
-5.386683 0.99399936 5.4948287
-5.3516088 1.0190933 5.4682388
-5.1123385 1.0316108 5.2782235
-4.8245287 1.0378046 5.049015
-4.6068311 1.0460156 4.8758373
-4.4196014 1.0540386 4.7270541
-4.2264519 1.0590827 4.5732756
-4.0850482 1.0667896 4.4609165
-3.9375892 1.0722753 4.3436947
-3.805459 1.077316 4.2385817
-3.6855159 1.0823902 4.1431909
-3.5716667 1.0867516 4.0527015
-3.4579484 1.0895616 3.9621475
-3.3563633 1.092797 3.8813689
-3.2669919 1.0964334 3.8102787
-3.1867776 1.1000593 3.7464929
-3.1156304 1.1042585 3.6900373
-3.0415385 1.1071917 3.6310949
-2.9796002 1.1109337 3.5818915
-2.9146314 1.1136742 3.530277
-2.8557711 1.1166662 3.4834864
-2.7969489 1.1188009 3.4367361
-2.7472095 1.1220446 3.3972342
-2.6914897 1.123611 3.3528688
-2.6418264 1.1255106 3.3134065
-2.5922081 1.1270072 3.2739034
-2.545635 1.1285377 3.2368317
-2.5050986 1.1306249 3.2046559
-2.4645979 1.1324034 3.172441
-2.4271033 1.1343729 3.1426821
-2.3926778 1.1364493 3.11533
-2.3522863 1.1368906 3.0831277
-2.3149009 1.1375768 3.0533807
-130.65315 -40.037468 101.94681
-130.64607 -39.247959 101.98473
-130.71364 -38.49498 102.08316
-130.67667 -37.699265 102.09787
-130.70724 -36.925663 102.16826
-130.74411 -36.165874 102.23919
-130.67421 -35.365616 102.22817
-130.72337 -34.600533 102.31276
-130.30704 -32.948769 102.07552
-22.263205 -4.6906466 18.446527
-22.306309 -4.5752454 18.486874
-21.93355 -4.356823 18.205595
-21.939373 -4.2325044 18.217037
-21.792717 -4.0749736 18.110077
-21.782059 -3.9481411 18.109257
-21.400309 -3.7402635 17.819691
-21.470722 -3.6352038 17.881001
-21.373266 -3.4929357 17.812576
-21.299902 -3.3567305 17.762228
-19.363678 -2.8591771 16.263346
-19.401089 -2.7569289 16.298481
-19.782845 -2.7176304 16.601692
-6.5037394 -0.24448246 6.2664027
-6.5064473 -0.2113902 6.2703619
-6.5059814 -0.17776957 6.2718463
-6.6244631 -0.16379026 6.3662186
-5.5709114 0.061278835 5.5477438
-5.5358701 0.093827084 5.5220356
-5.497735 0.12680221 5.4937773
-5.468596 0.1581192 5.4726543
-5.4516335 0.18715781 5.460876
-5.4468384 0.21493295 5.4586244
-5.4388146 0.2429935 5.4539738
-5.4276714 0.27089283 5.446723
-5.422575 0.29843527 5.4442205
-5.4510427 0.32265443 5.4681401
-5.5346746 0.3417857 5.5351596
-5.5845108 0.3651593 5.5757561
-5.5391021 0.39664084 5.5418086
-5.4660282 0.42922336 5.4859653
-5.4234691 0.45928848 5.4541826
-5.4207587 0.48639703 5.4535384
-5.4179482 0.51307464 5.4527917
-5.4364619 0.53903705 5.4689574
-5.4488058 0.56549609 5.4801526
-5.4609041 0.59135282 5.4977484
-5.4607153 0.61852288 5.4992294
-5.454361 0.64586806 5.4957147
-5.4601793 0.67247534 5.5017786
-5.456634 0.69970179 5.5006099
-5.4530559 0.72689849 5.4992805
-5.4431973 0.75367701 5.4930973
-5.4424925 0.78077328 5.4940333
-5.4447556 0.8078922 5.4973154
-5.4529963 0.83471692 5.5054398
-5.5224414 0.86321795 5.5618982
-5.4478426 0.88897014 5.5043564
-5.4313002 0.91523665 5.4928608
-5.4085951 0.94150925 5.4763627
-5.4102821 0.96856147 5.4791861
-5.3934774 0.99435854 5.4674568
-5.3644009 1.0197217 5.4458714
-5.1243033 1.0321801 5.2569013
-4.8507729 1.0393051 5.0410795
-4.6262078 1.0471145 4.8640008
-4.4261169 1.054199 4.7063313
-4.250608 1.060692 4.5679517
-4.1026096 1.067904 4.4513583
-3.9424434 1.0722458 4.325078
-3.8220451 1.0784525 4.2302437
-3.7016833 1.0835414 4.1353765
-3.5813494 1.0872355 4.040534
-3.4702787 1.0903845 3.9529016
-3.36834 1.0936203 3.8725662
-3.2786567 1.0972587 3.8018658
-3.195127 1.1004763 3.7360067
-3.1206992 1.1042336 3.6774397
-3.0524168 1.1080306 3.6236649
-2.9902618 1.1117796 3.5747318
-2.9250655 1.1145264 3.5234003
-2.8659992 1.1175257 3.4768658
-2.8039474 1.11915 3.4279528
-2.7540359 1.1223851 3.3886681
-2.7011414 1.1244949 3.3469632
-2.648288 1.1258327 3.3053007
-2.5984979 1.1273209 3.2660146
-2.5517631 1.1288431 3.229146
-2.5140946 1.1315464 3.1995602
-2.4704452 1.1326947 3.1651096
-2.4328208 1.1346579 3.1355143
-2.3982761 1.1367282 3.1083126
-2.3607411 1.1378555 3.0786943
-2.3202295 1.1378422 3.0467029
-131.85358 -40.242878 101.95828
-131.80199 -39.435143 101.96246
-131.87048 -38.678116 102.06134
-131.88541 -37.893467 102.11622
-131.91074 -37.113712 102.18263
-131.97562 -36.357327 102.27499
-131.92433 -35.557594 102.27896
-131.87735 -34.761574 102.28977
-131.56369 -33.907726 102.09169
-131.96362 -32.452354 102.48805
-22.416466 -4.579103 18.42103
-22.01812 -4.3546815 18.122713
-21.883919 -4.1972966 18.026512
-21.825027 -4.0608263 17.988007
-21.594807 -3.8850873 17.818365
-21.333612 -3.7053897 17.624146
-21.312607 -3.5816643 17.614544
-21.291046 -3.4564886 17.605164
-21.299858 -3.3377156 17.618591
-19.457874 -2.8606634 16.205877
-19.467897 -2.7530332 16.219637
-20.013191 -2.7432947 16.646339
-20.010048 -2.6319351 16.650555
-20.006897 -2.5189729 16.654312
-6.4918585 -0.17081665 6.2208433
-6.5800686 -0.15210354 6.2909784
-5.5873051 0.062429115 5.5268626
-5.5490742 0.095405787 5.4989319
-5.5108089 0.12835407 5.4708376
-5.4815693 0.15964636 5.4498396
-5.4645481 0.18866344 5.4381328
-5.4566622 0.21678594 5.4335179
-5.4486103 0.24480903 5.4288983
-5.4374285 0.27267075 5.4216919
-5.4292374 0.3004896 5.4168215
-5.4516482 0.32525322 5.4358349
-5.5201788 0.34570652 5.4905314
-5.6101904 0.36553276 5.561986
-5.6292667 0.39196801 5.5784893
-5.4728355 0.43102309 5.458354
-5.4362879 0.46061063 5.4315438
-5.4304886 0.48789001 5.4285131
-5.430748 0.51436019 5.4301734
-5.4431677 0.54061693 5.4414597
-5.455554 0.56702554 5.4525976
-5.4677286 0.59283316 5.470129
-5.4675407 0.6199497 5.4716067
-5.4642425 0.64715695 5.4705224
-5.4700818 0.67373055 5.4765596
-5.4696021 0.70087284 5.4778109
-5.4629364 0.72808075 5.4740887
-5.4530449 0.75482178 5.4679456
-5.4554148 0.78188783 5.4712925
-5.4607601 0.80901277 5.476974
-5.4721041 0.8358807 5.4874711
-5.4557376 0.86276972 5.4761324
-5.4484978 0.88970858 5.4719448
-5.422688 0.91560078 5.4532847
-5.4214082 0.94250941 5.4537644
-5.4323115 0.96993363 5.4638162
-5.4093113 0.99546707 5.4473357
-5.3801346 1.0208234 5.4258761
-5.1422796 1.0334069 5.2403669
-4.8647432 1.0402832 5.0233264
-4.6455359 1.0484753 4.8520532
-4.4447556 1.0555472 4.6952567
-4.2625175 1.0615257 4.5528178
-4.11095 1.0684309 4.4344578
-3.9594121 1.073584 4.3161139
-3.8355405 1.0794898 4.2193923
-3.7117081 1.0842431 4.1226382
-3.5909615 1.0879083 4.0283213
-3.4764571 1.0906709 3.9387619
-3.3741703 1.0938644 3.8588719
-3.2811325 1.0970684 3.7861533
-3.2003658 1.1006434 3.7230697
-3.1317737 1.105226 3.669646
-3.0602121 1.1085763 3.61376
-3.0008843 1.1127758 3.5675063
-2.9354625 1.1155246 3.5164583
-2.8792267 1.1190284 3.4725873
-2.8169575 1.1206727 3.423944
-2.7638385 1.1233951 3.3824704
-2.707731 1.124956 3.3385916
-2.6516697 1.1257102 3.2947569
-2.601711 1.1271687 3.2556889
-2.5578396 1.1292684 3.2214262
-2.5170233 1.1313391 3.1896052
-2.4702113 1.1318182 3.1529474
-2.4354763 1.1343961 3.1259165
-2.4008157 1.1364405 3.0988665
-2.3661621 1.1382349 3.0718083
-2.3255115 1.138212 3.0399938
-132.68091 -40.336803 101.67639
-132.64163 -39.530579 101.69037
-132.6835 -38.763138 101.76871
-132.76251 -37.99506 101.87216
-132.70341 -37.188381 101.8745
-132.73849 -36.421455 101.94386
-132.74812 -35.636673 101.99452
-132.67395 -34.831097 101.98513
-132.67996 -33.276703 102.07535
-132.74927 -32.512741 102.17475
-22.437864 -4.5620809 18.28709
-22.102249 -4.3534532 18.039268
-21.943169 -4.1902909 17.925049
-21.556973 -3.9790654 17.637592
-21.845791 -3.9212356 17.865038
-21.400173 -3.700695 17.532063
-21.412792 -3.5841079 17.548252
-21.424894 -3.4656839 17.564718
-21.436844 -3.3471518 17.5805
-19.692976 -2.890291 16.255562
-21.234921 -3.0695148 17.439966
-20.084515 -2.7406418 16.567055
-20.25959 -2.6606736 16.707602
-20.434826 -2.577054 16.847933
-6.5050588 -0.16868442 6.1912088
-6.5381842 -0.1411854 6.2185407
-5.6005144 0.063824743 5.5035276
-5.5621548 0.096776366 5.4757624
-5.5237589 0.12969954 5.4478335
-5.494421 0.1609683 5.4269614
-5.4773426 0.18996455 5.4153275
-5.46943 0.21806775 5.4107451
-5.4551811 0.24676722 5.4014182
-5.4439602 0.27457416 5.3942561
-5.4357405 0.30233818 5.3894167
-5.4427919 0.32852685 5.3964515
-5.4806757 0.35162646 5.4270716
-5.6080427 0.36803615 5.5266447
-5.6735106 0.39074248 5.5787477
-5.4887524 0.4319424 5.437881
-5.4582605 0.46111 5.4159946
-5.4400864 0.48917818 5.4034595
-5.4372578 0.51578438 5.4027324
-5.4373622 0.54260314 5.4044199
-5.4467015 0.56902486 5.4131107
-5.4527898 0.59493172 5.4257798
-5.4649534 0.6214692 5.4368129
-5.4739952 0.64823925 5.4453044
-5.4736814 0.67490858 5.4465294
-5.4701161 0.70202649 5.4453864
-5.4726901 0.72905636 5.4488726
-5.4596815 0.75577199 5.4403763
-5.465147 0.7827912 5.4461069
-5.4581733 0.8097856 5.4421797
-5.4788146 0.83667493 5.4598141
-5.4562273 0.86338848 5.4437504
-5.4551334 0.89039123 5.4443884
-5.426158 0.91613102 5.4234419
-5.4187155 0.94274282 5.4191294
-5.4265823 0.96993184 5.4267335
-5.4189091 0.99607784 5.4223456
-5.3988714 1.0218902 5.4082108
-5.1509752 1.0338941 5.2165422
-4.8848 1.0414853 5.0103106
-4.6586947 1.0492321 4.835196
-4.4572315 1.0562648 4.6792765
-4.2897339 1.0634787 4.5496292
-4.1253605 1.069355 4.4223337
-3.979444 1.0750756 4.3094492
-3.8490105 1.0803952 4.2084708
-3.721689 1.0848169 4.1098585
-3.6005316 1.0884585 4.0160685
-3.4825749 1.0908383 3.9246118
-3.3830028 1.094372 3.8475661
-3.292707 1.0979536 3.7776506
-3.2086067 1.101117 3.7125225
-3.1367264 1.1052552 3.6570027
-3.0649238 1.1085738 3.6014299
-3.0053959 1.112744 3.5554357
-2.9397535 1.1154624 3.5046742
-2.8833289 1.1189376 3.4610496
-2.8238943 1.1210711 3.415071
-2.7736359 1.1243196 3.3762212
-2.7142959 1.125333 3.3301957
-2.6580439 1.1260762 3.2866061
-2.610949 1.1281142 3.2501445
-2.5699573 1.1308297 3.2184601
-2.5259681 1.1323028 3.1844287
-2.4759679 1.1321486 3.1455889
-2.4350686 1.1334009 3.113941
-2.4002957 1.135404 3.0870447
-2.3685474 1.1378508 3.0625224
-2.3337901 1.1392257 3.0356474
-22.115723 -4.3344007 17.902403
-21.55452 -4.0778222 17.485809
-22.053169 -4.0711951 17.868877
-21.990273 -3.9325273 17.828823
-21.715195 -3.7488325 17.627806
-21.512886 -3.5856192 17.481514
-21.675724 -3.4978216 17.611904
-21.678593 -3.3764143 17.620785
-19.78735 -2.8916895 16.196392
-20.278042 -2.8727634 16.574068
-20.223385 -2.7494121 16.538902
-20.130856 -2.6219101 16.475437
-20.041317 -2.4943464 16.413725
-20.333946 -2.4305587 16.641853
-6.464921 -0.1251539 6.1231537
-5.6198044 0.064528093 5.4848652
-5.5720453 0.098794535 5.4502225
-5.5335188 0.13167301 5.4224567
-5.500988 0.16329938 5.3993564
-5.4869432 0.19185653 5.3901453
-5.4759083 0.22028723 5.3832383
-5.4647055 0.24858296 5.3763256
-5.4503498 0.27668187 5.3668509
-5.439003 0.30470246 5.3596816
-5.4336872 0.33199805 5.3572321
-5.4562044 0.35634935 5.3758588
-5.4786453 0.38135663 5.3944631
-5.6527767 0.39480841 5.5290236
-5.492187 0.43396598 5.4078846
-5.470891 0.46243811 5.3932314
-5.4495559 0.49067199 5.3784041
-5.4467173 0.51724255 5.3776865
-5.4437227 0.54417819 5.3769999
-5.4499941 0.57068348 5.3832731
-5.4561396 0.59652221 5.3959007
-5.4900312 0.62229508 5.4235187
-5.4774189 0.64969242 5.4153242
-5.4956903 0.6759069 5.4308224
-5.4642391 0.70347607 5.4082761
-5.4668241 0.73038173 5.4117451
-5.4599686 0.75694972 5.4080639
-5.4716473 0.78389502 5.4185305
-5.4491749 0.81071031 5.4027185
-5.4461422 0.8908897 5.4049273
-5.432539 0.91695964 5.3960261
-5.4281664 0.94362974 5.3941298
-5.4391527 0.97091615 5.4040833
-5.4345455 0.99719143 5.4021139
-5.4206176 1.023332 5.392837
-5.1687961 1.0351276 5.1998653
-4.8986354 1.0424707 4.9924097
-4.665597 1.0497237 4.8135099
-4.469625 1.0571474 4.6632409
-4.2953973 1.0638113 4.5295534
-4.1335535 1.0698851 4.4053612
-3.9871466 1.0755529 4.2931137
-3.8531971 1.0805157 4.1903191
-3.722373 1.0845454 4.0898781
-3.6038871 1.088448 3.9990027
-3.4916813 1.0914868 3.9128301
-3.3887026 1.0946178 3.8338349
-3.2981045 1.0981599 3.7643139
-3.2137222 1.1012857 3.6995535
-3.141602 1.1053889 3.6443479
-3.0726223 1.109122 3.5914712
-3.0098321 1.1128111 3.543355
-2.9470301 1.1159806 3.4952612
-2.8873584 1.1189398 3.4495034
-2.8277256 1.1210417 3.403785
-2.7773004 1.1242604 3.3651552
-2.7177625 1.125242 3.3193893
-2.6643703 1.1265268 3.2784226
-2.6140726 1.1279633 3.2397914
-2.5729449 1.1306515 3.2082868
-2.5257714 1.1314716 3.1720748
-2.4786439 1.1319129 3.135828
-2.4345765 1.1324775 3.1019886
-2.4027226 1.135115 3.0776167
-2.3678424 1.1368417 3.0508654
-2.3299496 1.1374608 3.0217776
-22.097689 -4.4340649 17.73526
-22.17131 -4.3265514 17.797756
-22.330963 -4.2382746 17.924036
-22.19471 -4.0830774 17.828941
-20.3055 -3.5404663 16.422459
-20.154724 -3.3940165 16.315836
-21.998117 -3.6687155 17.702795
-21.479923 -3.4397087 17.321827
-20.476292 -3.1208014 16.575985
-20.19035 -2.9532046 16.368244
-20.386194 -2.8769958 16.521402
-20.306644 -2.7489452 16.467937
-20.229294 -2.6240597 16.416504
-20.151857 -2.4984107 16.364511
-20.272097 -2.4060123 16.461056
-6.5984449 -0.14208558 6.1845365
-6.4056129 -0.07926622 6.0413041
-5.6514087 0.063215002 5.4754157
-5.5848913 0.10016869 5.42698
-5.5431337 0.133439 5.3970442
-5.5135984 0.16462412 5.376421
-5.499507 0.19316104 5.3672705
-5.4884348 0.22157182 5.3604097
-5.4740906 0.2501941 5.3512001
-5.4596853 0.27825522 5.3417854
-5.4451942 0.30654925 5.3323159
-5.4367528 0.33408394 5.3275366
-5.4344769 0.36057717 5.3272624
-5.4756408 0.38382643 5.3598585
-5.6876631 0.39432108 5.5218797
-5.660253 0.4239701 5.5026565
-5.5020666 0.46233219 5.3845425
-5.4620028 0.49177438 5.3556781
-5.4591551 0.51832676 5.3549714
-5.4561529 0.54524398 5.3542967
-5.4593353 0.57186675 5.3581824
-5.4593186 0.59790528 5.3660498
-5.4622431 0.6246022 5.3698773
-5.4744568 0.65109921 5.3806448
-5.4865761 0.67733884 5.3913264
-5.4669423 0.73143935 5.3794651
-5.4631743 0.75790781 5.3781776
-5.4624701 0.78475404 5.379117
-5.5020428 0.81192964 5.4107809
-5.4638252 0.83808279 5.383213
-5.437993 0.86445826 5.3649697
-5.4431124 0.89133245 5.3703508
-5.4356766 0.91748685 5.3662486
-5.4374971 0.94431245 5.3691125
-5.4640284 0.97222435 5.3908758
-5.4656048 0.99885005 5.3936715
-5.4485273 1.0249097 5.3820844
-5.1865664 1.0361724 5.1830959
-4.9185982 1.0436826 4.9791923
-4.6754913 1.0502647 4.7941928
-4.4819608 1.0578701 4.6471529
-4.3133364 1.0650109 4.51897
-4.1478572 1.0708153 4.3931122
-3.9947801 1.0758899 4.2767596
-3.8603842 1.080809 4.1745501
-3.7291243 1.0847952 4.0746808
-3.6133294 1.0890009 3.9866943
-3.4976654 1.091656 3.8986406
-3.4005075 1.095508 3.8248367
-3.3096042 1.09905 3.7557108
-3.2249379 1.1021765 3.6913183
-3.1494994 1.1058511 3.634058
-3.0802889 1.1095705 3.5814822
-3.0203609 1.1137149 3.5360086
-2.9542775 1.1164047 3.485821
-2.8944063 1.1193521 3.4403234
-2.8376389 1.1219627 3.3972313
-2.7870426 1.1251891 3.3588207
-2.7273033 1.1261768 3.313314
-2.6676161 1.1263224 3.2678533
-2.6202071 1.1283221 3.2318048
-2.5758901 1.1303939 3.1981187
-2.531611 1.131813 3.164474
-2.4873724 1.1328881 3.1307917
-2.4461982 1.1341224 3.0995011
-2.414232 1.1367884 3.0752659
-2.3731542 1.1371522 3.0439539
-2.3351347 1.1377639 3.0150313
-19.736975 -3.8375063 15.842607
-22.300507 -4.3353333 17.747881
-22.355822 -4.2223887 17.795782
-22.29628 -4.0849166 17.758461
-22.143438 -3.9259839 17.652586
-22.048958 -3.7814097 17.589325
-19.998571 -3.2321799 16.074093
-20.857994 -3.2948508 16.718964
-20.089136 -3.0270581 16.154158
-20.099499 -2.9189315 16.16844
-20.320709 -2.8481548 16.339077
-20.28116 -2.728107 16.315865
-20.271793 -2.615618 16.315519
-20.262403 -2.5015969 16.314713
-20.575663 -2.4401772 16.554222
-20.512352 -2.3180273 16.513754
-6.4428358 -0.080733687 6.0306902
-5.6643758 0.064834088 5.4518647
-5.6069727 0.10045178 5.4106827
-5.5588551 0.13458051 5.3762846
-5.5261087 0.16615729 5.3534641
-5.5119705 0.19467339 5.3443732
-5.497746 0.22342724 5.3352304
-5.4833536 0.25201058 5.3260798
-5.4689002 0.28003335 5.3167233
-5.45436 0.30828831 5.3073149
-5.4427724 0.3360782 5.3002338
-5.4373693 0.36279362 5.2976294
-5.4412374 0.38907054 5.301991
