# .PCD v0.7 - Point Cloud Data file format
VERSION 0.7
FIELDS x y z
SIZE 4 4 4
TYPE F F F
COUNT 1 1 1
WIDTH 1510
HEIGHT 1
VIEWPOINT 0 0 0 1 0 0 0
POINTS 1510
DATA ascii
6.3069119 -7.8661213 -0.2704255
5.7541089 -7.1766529 -0.28877613
5.1523929 -6.4264092 -0.29625151
7.7948613 -9.6104088 2.748745
7.8026896 -9.6200609 2.692193
7.9666309 -9.8225374 2.6883781
7.950079 -9.8021288 2.6234932
7.8852038 -9.7221403 2.5424902
7.8801994 -9.7163172 2.4814842
7.9427133 -9.7933969 2.4422512
7.9954233 -9.8587399 2.3984079
8.0675755 -9.9477072 2.3595097
8.0352592 -9.9082136 2.290808
8.0698376 -9.9522724 1.6443588
7.0590768 -8.7259493 -0.25089926
6.3387127 -7.8354845 -0.27067259
5.7632613 -7.1241512 -0.28799284
5.180378 -6.4038587 -0.29653904
8.0218382 -9.802865 2.633033
8.014513 -9.7942629 2.4511647
8.0456562 -9.8326721 2.4005835
7.9819655 -9.7548351 2.322001
8.0029392 -9.7808151 2.2694049
7.1267161 -8.73137 -0.25194687
6.3703718 -7.8047271 -0.27056772
5.7992291 -7.1049857 -0.28823826
5.2156758 -6.3902669 -0.29696065
7.9477148 -9.6262779 2.5944374
7.8747478 -9.5379 2.5117352
8.0645514 -9.7681379 2.4529507
8.1227474 -9.8389769 2.4102917
7.9697118 -9.6539497 2.247565
7.1523275 -8.685111 -0.25190309
6.6674843 -8.0963631 -0.28205016
5.8624344 -7.1187868 -0.29015535
8.0753145 -9.6943579 2.6222577
7.967742 -9.565217 2.5280602
8.0386419 -9.6506758 2.490926
8.1439133 -9.7770567 2.4640903
7.2300868 -8.7018814 -0.25330207
6.7077389 -8.0732012 -0.28226018
5.8934402 -7.0931396 -0.29015535
8.0856085 -9.6210384 2.6114857
8.0907354 -9.6271391 2.5532751
8.0955219 -9.6331749 2.4950461
8.152009 -9.7003918 2.4532511
7.2780166 -8.6822157 -0.25404727
6.7479115 -8.0498333 -0.28283685
5.9393764 -7.0853019 -0.29121515
5.3214312 -6.3483577 -0.29880384
8.3323383 -9.8272419 2.7378349
8.0831509 -9.5333481 2.53773
8.1325216 -9.5919151 2.4935267
8.1818562 -9.6501036 2.4495387
8.3731766 -9.8771544 2.0211468
8.4625683 -9.9829559 1.8603468
8.3002796 -9.8140602 -0.22949053
7.3133087 -8.6473951 -0.25395972
6.8031435 -8.0441656 -0.283678
5.9777985 -7.0682626 -0.29158407
8.313076 -9.7182388 2.7173133
8.3955221 -9.8146219 2.6835809
8.4556599 -9.8849239 2.6408777
8.166853 -9.547637 2.4910281
8.1740561 -9.5560579 2.434469
8.401166 -9.8229542 2.0173066
8.4094906 -9.8326883 1.9597106
8.4175615 -9.842473 1.9011571
8.4532814 -9.8842392 1.8485751
8.4760351 -9.9111948 1.7937597
8.3430195 -9.7777472 -0.22971487
7.3281541 -8.5886612 -0.25336862
6.7342587 -7.892611 -0.2795482
5.9807034 -7.0094376 -0.29039213
8.2855015 -9.6008787 2.6945813
8.2933397 -9.6099606 2.6374903
8.6290884 -9.9993649 2.556972
8.6063623 -9.973382 2.4879148
8.6212263 -9.9906073 2.429837
8.3715754 -9.7023287 1.9409909
8.4326553 -9.7734623 1.8949163
8.4963293 -9.8472605 1.8485751
8.5368958 -9.8946276 1.7974856
7.3426294 -8.5299673 -0.25257984
6.7813697 -7.8779492 -0.28007424
8.3449392 -9.5848789 2.6998205
8.6499586 -9.9355688 2.6113591
8.6500311 -9.9356537 2.5498302
8.6498547 -9.9358006 2.4874549
8.5865946 -9.8631363 2.4074519
8.3066931 -9.5426311 1.9740974
8.4011955 -9.6511936 1.9376193
8.4727249 -9.7337103 1.8938985
8.5798836 -9.8568172 1.8569138
8.5978146 -9.8777637 1.8007544
8.6514292 -9.9393597 1.750692
7.4309855 -8.5568132 -0.25472826
6.9411302 -7.9927425 -0.28559917
6.0672374 -6.9864507 -0.29194561
8.7766705 -9.9927368 2.6364245
8.6705246 -9.8718824 2.5431492
8.6931248 -9.8979635 2.4874549
8.6092682 -9.8024845 2.401794
8.4080954 -9.5737667 2.2864895
8.5265245 -9.7092972 2.0162532
8.4049988 -9.5709143 1.9288465
8.4105577 -9.5775814 1.8706431
8.663641 -9.8657818 1.8657066
8.638279 -9.8372469 1.8002223
8.5107536 -9.6920223 1.7136513
8.4831553 -9.6823845 -0.23051323
7.4708242 -8.5272455 -0.25481603
6.6620088 -7.6040583 -0.27274668
6.1722765 -7.0450745 -0.29551792
8.7745094 -9.9027929 2.6222906
8.5402813 -9.6387854 2.4311972
8.5475569 -9.6469965 2.3723471
8.4221601 -9.5061388 2.0407217
8.4280872 -9.5131645 1.9826871
8.433918 -9.5197458 1.9254783
8.5727654 -9.6768084 1.8968505
8.5537682 -9.6774616 -0.23173338
7.4846778 -8.4682245 -0.25442055
6.7106342 -7.5924654 -0.27373248
8.8786173 -9.9322863 2.7036767
8.8559389 -9.9072647 2.633682
8.674613 -9.7044125 2.5189412
8.6436501 -9.6701136 2.4485886
8.7175798 -9.7528229 2.4077024
8.4437962 -9.4475222 1.9766662
8.4496384 -9.4540586 1.9196311
8.524766 -9.5384512 1.8770031
8.6011114 -9.6458769 -0.23187353
7.5371504 -8.4529753 -0.25494802
6.1711521 -6.9209971 -0.29288518
9.0000134 -9.9797544 2.9827323
9.0090446 -9.989768 2.9213159
8.7297449 -9.6807432 2.5224245
8.7526236 -9.7064552 2.4672015
8.724062 -9.6747808 2.3975756
8.5218668 -9.4515457 1.9264257
8.8050518 -9.7659674 1.8677658
8.9792128 -9.9594841 1.7808573
9.0027266 -9.9855661 1.7230617
8.619607 -9.5821199 -0.23146781
7.5844054 -8.4316177 -0.2554976
6.7896881 -7.5481277 -0.2744371
6.1386228 -6.8243351 -0.29008573
9.048605 -9.9460306 2.9844251
9.0576849 -9.9560108 2.9229739
8.7848053 -9.656745 2.526135
8.9188738 -9.8044643 2.5019813
8.6730223 -9.5348692 2.1909239
8.5447197 -9.3938169 2.0997667
8.4836102 -9.3266354 2.0256283
8.7155228 -9.5819302 2.0203929
8.4642715 -9.3057013 1.9042089
8.8319664 -9.710289 1.8644698
9.0434265 -9.9431276 1.7849712
8.6980791 -9.5849104 -0.2324498
7.6158743 -8.3926601 -0.25532165
6.8540473 -7.5531306 -0.27570373
6.3126454 -6.9565082 -0.29687208
9.0739374 -9.8868637 2.9780319
9.0830402 -9.8967829 2.916702
8.8398819 -9.632515 2.5293891
8.5856762 -9.3564987 2.0993233
8.54774 -9.3151569 2.0307639
8.7285929 -9.5125799 2.01332
8.5779543 -9.3484116 1.9201362
8.8586073 -9.6546097 1.8607163
9.0344095 -9.8465538 1.7742198
8.7688227 -9.5785484 -0.23367466
7.6840587 -8.3939104 -0.25677466
6.3587494 -6.9461694 -0.29794112
9.1791697 -9.9143362 2.9983423
9.1883783 -9.924283 2.9365942
8.6118841 -9.3032446 2.0363395
8.6258154 -9.3186216 1.980216
8.6396523 -9.3335695 1.9248124
8.6453714 -9.3400755 1.8666965
8.6510735 -9.3462353 1.8085415
9.013855 -9.7385101 1.8235426
9.045723 -9.7729387 1.7680503
8.8078833 -9.5373268 -0.23360439
7.7365079 -8.3775167 -0.25730336
6.4048901 -6.9355679 -0.29868227
9.2084599 -9.8607082 2.4193811
9.2054014 -9.8574324 2.3550398
8.5539427 -9.1601515 2.0714896
8.6761341 -9.2910023 2.0414715
8.6163912 -9.2273483 1.9683394
8.5933533 -9.2026758 1.9050838
8.6280565 -9.2401638 1.8537841
8.6654196 -9.2801781 1.8026063
9.0430994 -9.6849909 1.8204211
9.0275383 -9.6683245 1.7557639
9.3148336 -9.9802017 0.12619637
9.3177948 -9.9833755 0.063854292
9.2787027 -9.9595957 -0.18321855
8.8893423 -9.5416632 -0.23511377
7.7729816 -8.3436737 -0.25770143
6.9629612 -7.4741812 -0.27683908
9.3951197 -9.9716024 2.9742429
9.1840611 -9.7479343 2.8434844
9.2887945 -9.859787 2.4920805
9.3173094 -9.8904009 2.4366181
9.1981907 -9.7639561 2.3422737
9.3320112 -9.906354 2.3123827
9.4156876 -9.9951801 2.2695932
9.2349319 -9.803299 2.1628697
8.6433392 -9.1756172 1.9653306
8.6334257 -9.1650934 1.9050838
8.6762428 -9.2108688 1.8554842
8.711133 -9.2479095 1.8037045
9.0003633 -9.5552959 1.8034078
9.0590181 -9.617568 1.753708
9.1175489 -9.6797075 1.7032641
9.3449039 -9.9252443 0.12601584
9.3425236 -9.9227152 0.06372644
9.3419876 -9.9395123 0.0024030576
9.3256731 -9.9225016 -0.059802201
9.3735409 -9.9734325 -0.12263204
9.3060217 -9.9019375 -0.18290311
8.9362402 -9.5084782 -0.2352546
7.8440809 -8.346673 -0.25884873
6.4838791 -6.8993192 -0.29987743
9.0429153 -9.5142679 2.9121816
9.0519857 -9.5238113 2.8521931
9.1396723 -9.6164045 2.8164811
9.313242 -9.7997122 2.5507977
9.3264647 -9.8136253 2.4904306
9.3392153 -9.8273859 2.4308658
9.2884493 -9.7739668 2.3541327
9.2849779 -9.7706556 2.2899005
9.456583 -9.9512358 2.2687166
9.0650988 -9.5392742 2.1130898
8.670023 -9.1238518 1.9621022
8.6015215 -9.0517645 1.8890876
8.7483196 -9.2065687 1.8620634
8.711463 -9.1677809 1.7952477
9.0739803 -9.5496216 1.8095579
9.1035852 -9.5807781 1.7539914
9.133029 -9.6117659 1.6980698
9.4200811 -9.9176769 0.188693
9.3827429 -9.8787117 0.12570582
9.3749704 -9.8705282 0.063415781
9.3691425 -9.8816481 0.002161264
9.385004 -9.8987236 -0.060143203
9.3900928 -9.9040899 -0.12252027
9.3383865 -9.8498983 -0.18292971
8.98839 -9.4807301 -0.23576427
7.901917 -8.3350372 -0.25975519
9.0553112 -9.4444408 2.9028747
9.064394 -9.4539137 2.8430781
9.1154337 -9.5074787 2.7962012
9.1664 -9.5606375 2.7496104
9.3346615 -9.7368155 2.5450037
9.3638783 -9.7672911 2.4890172
9.3926497 -9.7976446 2.4336233
9.3975821 -9.8027897 2.3709288
9.5114079 -9.9218702 2.3350441
9.4972458 -9.9070978 2.2680798
9.4669504 -9.875494 2.1966968
8.5874805 -8.9583845 1.8774014
8.809804 -9.1906309 1.8665967
8.8075829 -9.1883144 1.8067768
9.0753927 -9.4680319 1.8015839
9.1372633 -9.5325785 1.7524495
9.1373453 -9.5326643 1.6911227
9.3191967 -9.7227221 1.6008296
9.5625582 -9.9801083 0.25288308
9.5065012 -9.9216042 0.18955511
9.4662924 -9.8799849 0.12624642
9.4098425 -9.8210669 0.06336119
9.4067698 -9.8350277 0.0021600239
9.4254065 -9.8548565 -0.060125981
9.3873205 -9.8150358 -0.12192415
9.3812761 -9.8090582 -0.18292971
7.9274135 -8.2891893 -0.25940192
9.0673409 -9.3747606 2.8931127
9.0764341 -9.3841619 2.8335073
9.125021 -9.4347248 2.7860086
9.3543396 -9.6718273 2.7928104
9.1262388 -9.4359846 2.662221
9.0971384 -9.4062252 2.5916054
9.0678263 -9.3759174 2.522315
9.5665827 -9.8919649 2.5959449
9.4438581 -9.7650661 2.4984369
9.5021925 -9.8257275 2.4503815
9.590126 -9.9166555 2.4080703
9.6135626 -9.9412374 2.3489552
9.5377598 -9.8628502 2.266964
8.8869667 -9.190196 1.9336336
8.8713598 -9.1743774 1.8706846
8.8556995 -9.1581821 1.8079791
9.5013428 -9.8262224 1.8771253
9.2111139 -9.5260687 1.758154
9.2004395 -9.5150299 1.6946304
9.5815907 -9.9130211 0.25175872
9.5551357 -9.8856506 0.18918295
9.5066004 -9.8357811 0.12573288
9.4770384 -9.8051958 0.063048959
9.4360323 -9.7798338 0.0016825489
9.4791641 -9.8248796 -0.060671426
9.4185581 -9.7624044 -0.18329795
9.1001701 -9.3269186 2.8905749
9.1092958 -9.3362722 2.8310218
9.1367474 -9.3647346 2.777087
9.3644009 -9.5980682 2.7832842
9.2715893 -9.5029411 2.6925001
9.2451296 -9.4761515 2.6219611
9.3577251 -9.5915613 2.5912876
9.448822 -9.6852732 2.5524981
9.5749083 -9.8145142 2.5217538
9.7490301 -9.9933424 2.5027666
9.6494274 -9.891243 2.4121006
9.7160101 -9.9598427 2.3633459
8.9652815 -9.1909151 1.8820152
8.8658695 -9.0890017 1.8019415
9.6468105 -9.8899422 1.8973207
9.2282562 -9.4608393 1.75353
9.2797461 -9.5136261 1.7015756
9.3308496 -9.5663528 1.6498952
9.6302061 -9.8767118 0.25190136
9.543644 -9.7879343 0.18810804
9.4948893 -9.7382717 0.12501483
9.4706469 -9.7134075 0.062723868
9.4677172 -9.7273712 0.0016806144
9.4892492 -9.749835 -0.060463112
9.6415215 -9.9062891 -0.12458077
9.4419956 -9.701622 -0.1829285
9.1461649 -9.2925949 2.8920393
9.1553364 -9.3019133 2.8324509
9.190958 -9.3384304 2.7809136
9.2720804 -9.4208546 2.7433603
9.3129988 -9.46243 2.6922684
9.2971716 -9.4466791 2.6247652
9.2811508 -9.4303999 2.5584245
9.7066002 -9.8630352 2.5448291
9.792572 -9.9507408 2.5025229
9.7276125 -9.8847313 2.4205906
9.7513008 -9.9091482 2.3611407
9.3081865 -9.4591913 2.0070086
9.043273 -9.1903009 1.8897216
8.8485012 -8.992362 1.790195
9.2450275 -9.3956633 1.7486759
9.3592348 -9.5117321 1.708288
9.554698 -9.7107191 1.6817267
9.7411375 -9.9008942 1.3312496
9.8242455 -9.985714 1.2780837
9.8036737 -9.9648037 1.2110487
9.6834316 -9.8446474 0.31502575
9.6540413 -9.8151102 0.25116184
9.624608 -9.7851858 0.18862092
9.5263357 -9.6856127 0.1246341
9.5102005 -9.6692076 0.062469102
9.4991236 -9.674819 0.0014420378
9.5152798 -9.6916122 -0.060596004
9.5888739 -9.7665701 -0.12358757
9.456871 -9.6324577 -0.18263632
8.1364536 -8.2878132 -0.26327795
9.1812506 -9.2471867 2.8903475
9.1904573 -9.2564592 2.8307941
9.2370014 -9.3036623 2.7825356
9.3023186 -9.3694515 2.740185
9.3703814 -9.4380045 2.6969261
9.4084949 -9.4767246 2.6444945
9.4465065 -9.5150108 2.5925369
9.6601191 -9.7305136 2.5862923
9.6977453 -9.768754 2.4673731
9.7401819 -9.8118439 2.3480597
9.7475262 -9.8192425 2.285826
9.5207949 -9.5911779 2.0438075
9.1459122 -9.2138453 1.9027503
8.9257975 -8.9920959 1.7978783
9.8702793 -9.9449806 1.4066101
9.806159 -9.8803759 1.3342311
9.7937355 -9.8682032 1.2685007
9.8635082 -9.9385061 1.2130716
9.8945036 -9.9700851 1.1532503
9.6830215 -9.7590313 0.25080559
9.6176929 -9.6931896 0.18765475
9.5630045 -9.6384087 0.12456243
9.5440464 -9.6193008 0.062415123
9.5357494 -9.6277285 0.0014412069
9.5602255 -9.6527777 -0.060613431
9.6231508 -9.7163115 -0.12348177
9.4933138 -9.5855522 -0.18253063
8.1890268 -8.2688808 -0.26380911
9.2080889 -9.1936369 2.885664
9.2173214 -9.2028542 2.8261971
9.2775764 -9.2633381 2.7820778
9.324234 -9.3099241 2.7341685
9.3790293 -9.3646355 2.6871479
9.5420141 -9.5277023 2.6698239
9.6454067 -9.6309404 2.6350722
9.7188463 -9.704608 2.590157
9.9119806 -9.89746 2.5754263
9.8056364 -9.7916126 2.4834306
9.8837862 -9.8699951 2.3717723
9.4751492 -9.4622593 2.0246484
9.3036699 -9.291337 1.9266492
9.1319227 -9.1198177 1.8309047
9.9521122 -9.9403076 1.4115816
9.8822231 -9.8705025 1.3382158
9.8119612 -9.8006649 1.2648222
9.9233294 -9.9119053 1.2146049
9.9765024 -9.9653645 1.157233
9.7780132 -9.7691422 0.25167689
9.6654263 -9.6566582 0.18728517
9.6022081 -9.593832 0.12405279
9.5804024 -9.5720453 0.061906405
9.5776672 -9.5860291 0.00096819538
9.6050119 -9.6137333 -0.061105229
9.7096233 -9.7184401 -0.12452563
9.5322828 -9.5412712 -0.18294856
9.2472734 -9.2559929 -0.23725846
8.2222614 -8.2303019 -0.26412669
9.3944817 -9.2982368 2.9313338
9.4039001 -9.307559 2.8709259
9.3260546 -9.2308331 2.7845104
9.3538933 -9.2583885 2.730994
9.384429 -9.2886124 2.6770575
9.6791601 -9.5806684 2.632848
9.9629765 -9.8619404 2.6437266
9.9195766 -9.8189812 2.5662436
9.8755922 -9.7757845 2.4903214
9.7871752 -9.6885986 2.3384223
9.4402552 -9.3458252 1.9464707
9.3942537 -9.3002844 1.8753468
9.8726978 -9.7753067 1.3311373
9.8739805 -9.7769184 1.2673059
9.9886074 -9.8904181 1.217301
9.7130203 -9.6198902 0.18739225
9.6439781 -9.5518436 0.12405279
9.6137514 -9.5219059 0.061852839
9.6166306 -9.5413961 0.00096791633
9.6524143 -9.5772343 -0.061140355
9.7380714 -9.6622248 -0.12434859
9.573823 -9.499588 -0.18294856
8.2830439 -8.2191038 -0.26492465
9.0212317 -8.851223 2.8025608
9.0302753 -8.860096 2.744802
9.2953625 -9.1205053 2.7632008
9.5088997 -9.3300266 2.7640953
9.4549618 -9.2771034 2.6853642
9.81355 -9.629282 2.7219334
9.7017422 -9.5195732 2.6274207
9.893611 -9.7081785 2.6138041
9.90203 -9.7164402 2.5504613
9.8248758 -9.6410685 2.4666526
9.7998562 -9.6165161 2.3956926
9.7744122 -9.5918837 2.3251047
9.6500731 -9.4705276 1.917907
9.9998484 -9.8155079 1.277705
9.760479 -9.5828934 0.1872606
9.6883526 -9.5124111 0.12385152
9.6552076 -9.4798679 0.061616678
9.6581707 -9.4993448 0.00073147874
9.6913252 -9.5322866 -0.061360046
9.730011 -9.5703382 -0.12394947
9.6096106 -9.4522438 -0.18307786
8.3410969 -8.2047892 -0.26583815
7.3908958 -7.2701163 -0.28223285
9.1007729 -8.8516607 2.8152459
9.1098967 -8.8605347 2.7572255
9.2227631 -8.9706249 2.7299581
9.544035 -9.2831135 2.7625082
9.5255384 -9.2651224 2.6939015
9.8170166 -9.5489655 2.7113128
9.7596817 -9.4931955 2.6318688
9.8450756 -9.5765924 2.5899174
9.9798489 -9.7080297 2.4949019
9.9217138 -9.6514778 2.4151645
9.7966003 -9.5347652 0.18715365
9.7269669 -9.4673233 0.12381589
9.6936798 -9.4349251 0.06159889
9.6911364 -9.4489326 0.00073084596
9.6824827 -9.4408245 -0.061042666
9.7744732 -9.5305185 -0.12398495
9.6283903 -9.3884096 -0.18265346
7.4449124 -7.2596073 -0.28308329
9.1448708 -8.8172293 2.816494
9.1540365 -8.826067 2.7584381
9.1958666 -8.8667078 2.710053
9.2375927 -8.9069405 2.6620669
9.808466 -9.4573793 2.7617242
9.8227968 -9.4715281 2.7009742
9.8369675 -9.4851923 2.6410296
9.9245424 -9.5753193 0.25038588
9.8381157 -9.4919338 0.18667647
9.7738075 -9.4302187 0.12341306
9.7403784 -9.3979645 0.061162002
9.7294645 -9.403842 0.00025830531
9.712348 -9.3876266 -0.061443646
9.8047276 -9.4769173 -0.12431904
9.6720667 -9.3490181 -0.18317606
7.4933558 -7.24333 -0.28408489
9.1363888 -8.7324476 2.8021197
9.145546 -8.7412004 2.7443602
9.2096071 -8.8027363 2.7027569
9.304018 -8.8929768 2.6700017
9.5811882 -9.1579018 2.6864538
9.9882689 -9.5483322 2.3455458
9.9831629 -9.5481215 0.25081134
9.9048424 -9.4732141 0.18715648
9.8487358 -9.4198809 0.12383899
9.826458 -9.3985739 0.061444424
9.8014297 -9.3910275 0.00025912558
9.8237286 -9.4127207 -0.061887857
9.8911114 -9.4772844 -0.12488881
9.7099466 -9.3040247 -0.18312287
8.5154457 -8.1597443 -0.26837939
7.527709 -7.2132668 -0.28419134
9.3062124 -8.8176937 2.719557
9.4121771 -8.9180956 2.6896119
9.665554 -9.1581717 2.6986372
9.8327904 -9.3169546 2.6810172
9.9893198 -9.4656038 2.529258
9.9889545 -9.4708834 0.12484104
9.9499407 -9.4503956 2.2453643e-05
9.9496717 -9.4504709 -0.062660418
9.9606895 -9.4609356 -0.1254847
9.7419529 -9.2534971 -0.18319783
8.5283127 -8.1009912 -0.26787373
7.5506139 -7.1722813 -0.28405377
9.7348843 -9.1432629 2.9608481
9.7446404 -9.1524267 2.8998117
9.4309425 -8.8581028 2.7446856
9.5234861 -8.9450254 2.7102401
9.7500706 -9.1578474 2.7110517
9.8649702 -9.2660923 2.6787419
9.9742937 -9.3687782 2.6444972
9.9352665 -9.3324471 2.5696597
9.9241161 -9.3219738 2.5024261
9.7765484 -9.2055464 -0.18309131
8.5664215 -8.0663795 -0.26796266
7.6017365 -7.1580052 -0.28479931
9.6072903 -8.9448462 2.9096615
9.6169176 -8.9538097 2.8496704
9.5199137 -8.8638048 2.7588224
9.5289021 -8.8721743 2.7002649
9.8352642 -9.1577415 2.6593122
9.9983034 -9.3095503 2.6395731
9.945055 -9.260294 2.5612254
9.8944674 -9.2131891 2.4843016
9.8080511 -9.1548004 -0.18339987
8.6100941 -8.0369129 -0.26864061
7.6842704 -7.1727219 -0.28708336
9.5621529 -8.8252459 2.8843014
9.5717344 -8.8340893 2.8248332
9.5528822 -8.8169985 2.7572014
9.5337954 -8.7993822 2.6907458
9.877944 -9.1173391 2.6600707
9.9683704 -9.2008028 2.6210473
9.9402342 -9.1751547 2.5496492
9.6293144 -8.9096661 -0.23926969
7.6839671 -7.1099529 -0.28591031
9.4542894 -8.6496096 2.8401201
9.4637623 -8.6582766 2.781558
9.526454 -8.7159376 2.7383354
9.5072289 -8.698348 2.6722758
9.9348936 -9.0902643 2.537838
9.6089087 -8.7143536 2.8130159
9.6238346 -8.7281971 2.7553537
9.5847569 -8.6927557 2.6833806
9.9773064 -9.049407 2.5385613
7.8583918 -7.1450725 -0.29025474
9.6712551 -8.694293 2.8821566
9.6809444 -8.7030039 2.8227229
9.7101727 -8.7295856 2.7689025
9.6937399 -8.7148123 2.7029829
9.9765615 -8.969388 2.6542943
9.996747 -8.9878511 2.5332627
9.6968184 -8.6413717 2.7543166
9.8801603 -8.8047581 2.7442257
9.7459593 -8.6091623 2.7571042
9.0355644 -7.8622518 -0.27422851
8.0889645 -7.0385723 -0.29377782
9.093442 -7.8431573 -0.2749438
8.1767864 -6.9905491 -0.29492843
4.1679497 -3.5234377 0.87470603
8.2280636 -6.9724755 -0.29567781
4.2452903 -3.5567956 1.0692838
4.2577553 -3.5673654 1.0461434
4.2554836 -3.5654621 1.0193487
4.258894 -3.5684462 0.99435747
4.2475824 -3.5589685 0.9656142
4.2449532 -3.5568912 0.93898547
4.227469 -3.5422413 0.9096067
4.2069583 -3.5250554 0.87945974
4.1892228 -3.5103188 0.85017675
4.1802707 -3.5028174 0.82324302
4.1563854 -3.4829266 0.79323375
4.4195914 -3.7038794 0.63051593
4.4216881 -3.7057679 0.60416931
4.4356732 -3.7174885 0.57936651
4.4465671 -3.7266185 0.55443376
8.2733507 -6.9490581 -0.29659021
4.2511282 -3.5302322 1.0926782
4.2637196 -3.5406885 1.0700244
4.2732801 -3.5487535 1.0461434
4.2710004 -3.5468602 1.0193487
4.2714658 -3.5473726 0.99366933
4.2630711 -3.540401 0.9656142
4.2545071 -3.5334141 0.93767953
4.2399197 -3.5212994 0.90897101
4.2193322 -3.5042012 0.8788417
4.1985612 -3.4870744 0.84897596
4.1866007 -3.4771407 0.82149392
4.1715431 -3.4647579 0.79323375
4.1683364 -3.4620945 0.76735973
4.1887522 -3.4791749 0.74615198
4.2568665 -3.5357506 0.73254925
4.3219905 -3.5898426 0.71765798
4.3810325 -3.6390119 0.70144218
4.3983712 -3.653414 0.67771882
4.4125848 -3.6653504 0.65336204
4.4148016 -3.6671917 0.62754381
4.4198852 -3.6715448 0.60172826
4.4219532 -3.6732626 0.57547551
4.4179182 -3.6699107 0.54885966
4.4197364 -3.6715515 0.52261919
4.2812996 -3.523838 1.0963702
4.2850657 -3.5269375 1.0714085
4.2917018 -3.5325253 1.0467694
4.2894158 -3.5306437 1.0199572
4.2809792 -3.5238247 0.99219626
4.2755203 -3.5193312 0.96484697
4.266923 -3.5123796 0.93693012
4.2522802 -3.5003264 0.90823925
4.231616 -3.4833162 0.87812805
4.2137475 -3.4687309 0.84888071
4.2017436 -3.4588492 0.82139897
4.1866317 -3.446532 0.7931391
4.1774411 -3.438966 0.76616985
4.165061 -3.4288964 0.73916376
4.1676245 -3.4310067 0.714513
4.1880493 -3.4478216 0.6928165
4.208312 -3.4646263 0.67126477
4.3873267 -3.6120055 0.67348158
4.3925891 -3.6164665 0.64795804
4.3977933 -3.6207511 0.62277389
4.4058785 -3.6275373 0.59756017
4.3989382 -3.6218226 0.5703178
4.3948708 -3.6184738 0.54392946
4.3966799 -3.6200922 0.5179199
4.3954558 -3.6190844 0.49156353
4.4060721 -3.6279545 0.46689442
4.4166927 -3.6366992 0.44172072
4.430171 -3.647927 0.41671395
4.4315734 -3.6490822 0.39088708
4.4329057 -3.6501789 0.36466083
3.8429034 -3.1645796 0.24803632
3.8467503 -3.1677475 0.22547069
3.8534651 -3.1733899 0.20336378
4.4253812 -3.6445017 0.12908459
4.4287415 -3.6473987 0.10296628
4.4380994 -3.6551056 0.077306621
4.4533377 -3.6677859 0.051216502
4.441411 -3.6579628 0.024795387
4.4018464 -3.6319582 -0.053223331
4.4015536 -3.631846 -0.078901388
4.3224368 -3.5260475 1.1294392
4.3025732 -3.5099685 1.0978856
4.297442 -3.5057824 1.0706681
4.3041 -3.5113389 1.0460464
4.3018031 -3.5094655 1.0192518
4.3022728 -3.5099735 0.99357241
4.2967992 -3.5055077 0.96618795
4.2941446 -3.5034668 0.93954176
4.2854314 -3.4963579 0.91205269
4.2736716 -3.4867637 0.8836897
4.2647309 -3.4795933 0.85608476
4.2557015 -3.4722261 0.82897753
4.240562 -3.4599972 0.80048817
4.2163801 -3.4402666 0.77055109
4.191977 -3.4204772 0.74128473
4.1645527 -3.3981001 0.71143758
4.1460118 -3.3829715 0.68341398
4.1573052 -3.392307 0.66076136
4.1716223 -3.4039898 0.63808358
4.3722425 -3.5678203 0.64265418
4.3774471 -3.5720675 0.61767966
4.382535 -3.5763469 0.59227198
4.3845854 -3.5780199 0.56642747
4.383503 -3.5771365 0.54058564
4.3822942 -3.5762775 0.51438218
4.3810534 -3.5752652 0.48820356
4.3856649 -3.5791559 0.46307263
4.3782058 -3.5730686 0.43630821
4.3826604 -3.5768311 0.41077301
4.365932 -3.5631785 0.38372216
4.3461027 -3.5469954 0.35624367
3.9515018 -3.2250638 0.30051762
3.8799863 -3.1666956 0.27247098
3.8808548 -3.1675172 0.24959141
3.8786743 -3.1657376 0.22653008
3.8733222 -3.1614819 0.20368178
3.9102929 -3.191658 0.18253563
4.3887959 -3.5822215 0.17896526
4.4195633 -3.6074629 0.15452991
4.423089 -3.6103411 0.128557
4.4294863 -3.6156914 0.10261581
4.4328246 -3.6184168 0.076938994
4.4390397 -3.6236186 0.050869741
4.4361472 -3.6212578 0.024677554
4.423955 -3.6177428 -0.0010878204
4.4177942 -3.6128333 -0.027155116
4.4176517 -3.6127172 -0.053223331
4.4264293 -3.6200242 -0.079063401
4.4321499 -3.6247027 -0.10532609
4.4528289 -3.6417439 -0.13210638
4.4613914 -3.648747 -0.15831062
4.4638076 -3.6507227 -0.18476057
4.4751306 -3.6601138 -0.21167111
4.4803905 -3.6644156 -0.23800376
4.4824586 -3.6662378 -0.26461858
4.4754367 -3.6604943 -0.29067513
4.3872795 -3.5471737 1.1690773
4.3497052 -3.5167947 1.1324424
4.3268018 -3.4984019 1.1000615
4.3186774 -3.4918327 1.072052
4.3223791 -3.4949505 1.0466723
4.3230643 -3.4955044 1.0205655
4.3265305 -3.4984319 0.99553955
4.3240366 -3.4964154 0.96877289
4.3243766 -3.4968152 0.94270927
4.3186402 -3.4921768 0.91576922
4.3188486 -3.4923453 0.88977242
4.3189015 -3.4925127 0.86379224
4.3188767 -3.4924927 0.83820802
4.3097262 -3.4852176 0.81056714
4.2854943 -3.4656212 0.78031266
4.2429824 -3.431365 0.74755245
4.2004271 -3.39695 0.71493125
4.1577301 -3.3624201 0.6828258
4.1509748 -3.3570766 0.65732616
4.1713629 -3.3735657 0.6356914
4.1071281 -3.3217349 0.60145688
4.2359991 -3.4259622 0.59550941
4.3678994 -3.5327656 0.58810616
4.3729644 -3.5368624 0.56282806
4.3748894 -3.5384192 0.53751516
4.3766909 -3.5400026 0.51180756
4.3754373 -3.5389886 0.48575336
4.3800573 -3.5428519 0.46074495
4.3422828 -3.5122976 0.43109891
4.2800965 -3.4621212 0.39964378
3.9845071 -3.2230222 0.3488695
3.9432712 -3.189667 0.32199138
3.9200637 -3.1710081 0.2969833
3.9149981 -3.1669102 0.27386853
3.9098082 -3.1628249 0.25047559
3.9076231 -3.1610572 0.22732516
3.8992202 -3.1543725 0.20423025
3.9059746 -3.1598368 0.18160091
3.9521101 -3.1971591 0.16049898
4.4049058 -3.5635867 0.15337333
4.4296937 -3.5836401 0.12819375
4.4270034 -3.5815918 0.10209587
4.4273157 -3.5818446 0.076471977
4.4274788 -3.5821042 0.050458256
4.4306488 -3.5846686 0.024460252
4.4275594 -3.5885668 -0.0011843162
4.430481 -3.5910628 -0.027236067
4.4303379 -3.5909469 -0.053286437
4.4361129 -3.5957558 -0.079055056
4.4448881 -3.602869 -0.10535412
4.453506 -3.6099832 -0.131758
4.4560342 -3.6120322 -0.15765993
4.4493623 -3.6066239 -0.18360962
4.4516335 -3.6085942 -0.2099131
4.4508548 -3.6079628 -0.23569643
4.4499092 -3.6073248 -0.26186553
4.4307499 -3.5917933 -0.28685194
4.3997302 -3.525605 1.1682847
4.3799472 -3.5097525 1.1363178
4.3539867 -3.4890747 1.103092
4.3458443 -3.4825494 1.0750135
4.3465743 -3.4832592 1.0488409
4.3502674 -3.4862189 1.0233867
4.353756 -3.4891393 0.99829155
4.3542662 -3.489548 0.97212505
4.3546195 -3.4899559 0.94597346
4.3548894 -3.4901724 0.92021781
4.3581238 -3.4927647 0.89471561
4.3672304 -3.5001881 0.87039524
4.3732562 -3.5050175 0.84578568
4.373148 -3.5050561 0.81961113
4.3730059 -3.5049422 0.79345477
4.3243494 -3.4660685 0.75921643
4.2786641 -3.4294505 0.72569364
4.2146897 -3.3781738 0.689753
4.1716332 -3.3437824 0.65828091
4.1276398 -3.3086374 0.6023407
4.2448478 -3.4025893 0.59466052
4.3650846 -3.4990938 0.58566588
4.3762245 -3.5080237 0.5612722
4.3811846 -3.5120001 0.53640074
4.3829894 -3.5135725 0.51074642
4.3938737 -3.5222976 0.48608929
4.4045873 -3.5310123 0.4617002
4.0020332 -3.208298 0.39592558
3.9942272 -3.2021546 0.37164325
3.980288 -3.1909797 0.3472777
3.9693177 -3.1821847 0.32298139
3.9551597 -3.1709478 0.29859111
3.9470382 -3.1644366 0.27514136
3.9418347 -3.1603777 0.25164148
3.9396458 -3.1586227 0.22838412
3.9342623 -3.1544194 0.2053428
3.9288619 -3.1500895 0.18202423
3.9325156 -3.153019 0.159143
3.9969552 -3.2047999 0.13868077
4.4209132 -3.5447342 0.12749085
4.4304008 -3.5524683 0.10181578
4.4337606 -3.5551624 0.076314628
4.4369717 -3.5578644 0.05038904
4.4401526 -3.5604148 0.024426721
4.4401298 -3.5667675 -0.0011835045
4.4400172 -3.5668044 -0.027198756
4.4459643 -3.5715818 -0.053286437
4.4548049 -3.5788119 -0.079109132
4.4666557 -3.5883322 -0.10549794
4.4692154 -3.5905168 -0.131758
4.4656639 -3.5876637 -0.15744528
4.4589691 -3.5822852 -0.1833593
4.455164 -3.5793562 -0.20934114
4.4482994 -3.5738411 -0.2347331
4.4382291 -3.5658777 -0.26026011
4.4159665 -3.5479913 -0.28488991
4.413919 -3.5054588 1.1943536
4.4180827 -3.5087655 1.1689788
4.4102259 -3.5025256 1.1400952
4.3901901 -3.4867387 1.1082975
4.37603 -3.4754927 1.0786178
4.3737698 -3.4738219 1.0516347
4.3714685 -3.4719944 1.0246998
4.3749743 -3.4749031 0.99957001
4.3785043 -3.4777067 0.97403878
4.3788657 -3.4781187 0.94783443
4.3791432 -3.478339 0.92202675
4.3823953 -3.4809222 0.89647162
4.3854952 -3.4835093 0.87089777
4.3915439 -3.4883139 0.84627074
4.3974905 -3.4931626 0.82120889
4.3973536 -3.4930537 0.79499954
4.3818669 -3.4808767 0.76654124
4.3663697 -3.4685659 0.7378962
4.3113174 -3.4248333 0.70301652
4.2377992 -3.3665524 0.66630161
4.1763535 -3.3177395 0.63192111
4.1481228 -3.2954309 0.60313207
4.2505407 -3.3767953 0.59329236
4.3559833 -3.4606872 0.58231509
4.3732371 -3.4743948 0.55884099
4.3903852 -3.4880183 0.53555995
4.0662823 -3.2306447 0.47210222
4.0496454 -3.2174268 0.4463594
4.0328312 -3.2041829 0.42117172
4.0220981 -3.1956551 0.39643717
4.014267 -3.1895475 0.37211943
4.0094347 -3.185708 0.34851483
4.0014825 -3.1793895 0.32437715
3.9933863 -3.1730704 0.30033955
3.9821885 -3.1641729 0.27653754
3.9800262 -3.1625681 0.25310731
3.9747796 -3.1583991 0.22953099
3.9693813 -3.1542225 0.20636684
3.9639654 -3.1499188 0.18292359
3.9584649 -3.1455479 0.15954784
3.9589319 -3.1460319 0.13679558
3.9593799 -3.1463878 0.11369577
4.4366875 -3.5258148 0.10150679
4.4492316 -3.5357835 0.076215439
4.4493961 -3.536041 0.050255239
4.4556456 -3.5410075 0.02432739
4.4556503 -3.5473597 -0.0012829065
4.4585934 -3.54983 -0.027316879
4.464561 -3.5545812 -0.053422537
4.4795437 -3.566638 -0.079371288
4.4914351 -3.5761058 -0.10581388
4.4940028 -3.5782783 -0.13212754
4.4904375 -3.5754395 -0.15786745
4.4867721 -3.572521 -0.18396004
4.4890594 -3.5744703 -0.21029924
4.4669008 -3.5568264 -0.23499331
4.4476371 -3.5416141 -0.26000255
4.422246 -3.5213954 -0.28439993
4.3935022 -3.4579661 1.2381955
4.3979006 -3.4614279 1.2126434
4.4201641 -3.4790757 1.1919243
4.4333506 -3.4894547 1.1689788
4.4314833 -3.4879849 1.1416453
4.4204178 -3.4794004 1.1120852
4.409236 -3.4705989 1.0830595
4.4069843 -3.468951 1.0559714
4.3956332 -3.4600163 1.0268155
4.393116 -3.458159 1.000258
4.3906126 -3.4561884 0.97336841
4.3940005 -3.4589791 0.94783443
4.3973069 -3.4615822 0.9226622
4.4005728 -3.4641531 0.89708942
4.4006534 -3.4643409 0.87089777
4.403688 -3.4667299 0.84568787
4.4066167 -3.4691601 0.82007849
4.4125528 -3.4738333 0.79499954
4.4122176 -3.4736941 0.7691918
4.4027615 -3.4662495 0.74148321
4.3901544 -3.4563239 0.71340597
4.2151728 -3.3186822 0.63559777
4.1624627 -3.2772999 0.60313207
4.2560811 -3.3510103 0.5920192
4.3496752 -3.4248242 0.57946855
4.1623721 -3.2773464 0.53006279
4.1183763 -3.2427051 0.50064826
4.0742269 -3.2080581 0.47139496
4.0881066 -3.2189872 0.44904628
4.0620675 -3.1985989 0.42276344
4.0543628 -3.1925318 0.39824054
4.049572 -3.188874 0.37409881
4.0447297 -3.185061 0.35037145
4.0398192 -3.1811943 0.32635656
4.031702 -3.1749163 0.30217651
4.0235362 -3.1684856 0.27844617
4.0183082 -3.1644824 0.25466129
4.0191803 -3.165169 0.23129526
4.0107031 -3.1586065 0.20779663
4.0022063 -3.1519151 0.18405187
3.9936233 -3.1451554 0.16041026
3.9879596 -3.1408079 0.13732375
3.9853427 -3.138747 0.11404695
3.9825876 -3.1366894 0.090803452
4.4615488 -3.5139198 0.076163054
4.4739885 -3.5238438 0.050358858
4.4802599 -3.5287833 0.02437748
4.4802861 -3.5351436 -0.0012855462
4.4832397 -3.537601 -0.027373049
4.4892273 -3.542326 -0.053532232
4.5073285 -3.5567365 -0.079587854
4.5161939 -3.5637324 -0.10602983
4.5157042 -3.5634739 -0.13230717
4.5243874 -3.5703259 -0.1585118
4.5299015 -3.5746772 -0.18508708
4.5252714 -3.5711517 -0.23724206
4.4814267 -3.5366783 -0.26107326
4.4375687 -3.5020664 -0.28439993
4.4145799 -3.4434676 1.2397871
4.4189992 -3.4469147 1.2142
4.4202528 -3.4480169 1.1877779
4.4515662 -3.4724426 1.1696728
4.4587512 -3.4780474 1.1446468
4.453702 -3.4742336 1.116532
4.4394732 -3.4631343 1.0866629
4.4372268 -3.4615064 1.059487
4.4197907 -3.4479046 1.0288334
4.4081774 -3.4389684 1.0001603
4.408699 -3.4393756 0.97394121
4.4151373 -3.4445221 0.94904226
4.4214983 -3.4494848 0.9244706
4.4217405 -3.4496737 0.89822721
4.4218259 -3.4498644 0.87200034
4.4218292 -3.4498672 0.84617281
4.4217229 -3.4499083 0.81998062
4.4246297 -3.4521763 0.79435408
4.4212403 -3.449656 0.76803368
4.4148006 -3.4446316 0.74087304
4.4021482 -3.4347594 0.71281374
4.3892894 -3.4248497 0.68529618
4.1806893 -3.2620842 0.62815195
4.1644917 -3.2495625 0.60127246
4.1390295 -3.2296946 0.57367897
4.11343 -3.2098348 0.54603267
4.1092253 -3.2065535 0.52141613
4.1263614 -3.2199254 0.49981409
4.1096606 -3.2070086 0.47377941
4.1051874 -3.2035182 0.44929126
4.097476 -3.1976154 0.42490116
4.0897522 -3.1915879 0.40025389
4.0849524 -3.1879568 0.37598771
4.0801001 -3.18417 0.35213774
4.0751791 -3.1803296 0.32799834
4.0639658 -3.1716926 0.30346423
4.0588512 -3.167701 0.27984077
4.0536103 -3.1637244 0.25593129
4.0544896 -3.1644108 0.23244047
4.0459871 -3.1578887 0.20881912
4.0374651 -3.151237 0.18494974
4.0288553 -3.1445174 0.16118348
4.0262532 -3.1425996 0.13807967
4.0205512 -3.138149 0.11457251
4.0147099 -3.1337023 0.091134302
4.0088344 -3.1291161 0.068112269
4.4831638 -3.4994824 0.05019052
4.4986939 -3.5116048 0.024294572
4.507977 -3.5251863 -0.001388945
4.5201716 -3.5348494 -0.027604261
4.5261788 -3.5395472 -0.053888477
4.5320334 -3.5442533 -0.079850689
4.550158 -3.5584276 -0.10656254
8.5569506 -6.6921592 -0.29895642
4.372232 -3.3798544 1.2237408
4.3766088 -3.3832378 1.1984849
4.4261856 -3.4216855 1.1853489
4.4606228 -3.448307 1.1680878
4.4769135 -3.4609008 1.1454217
4.4839773 -3.4664869 1.1203194
4.478817 -3.4624975 1.0925847
4.473547 -3.4585481 1.064546
4.4530306 -3.4426866 1.0330644
4.4383507 -3.4314611 1.0035998
4.4327974 -3.4271677 0.97595209
4.4423122 -3.4346476 0.95165306
4.4487038 -3.4395895 0.92701215
4.448956 -3.4397845 0.90069824
4.4459972 -3.4376209 0.87380069
4.4429512 -3.4352658 0.84733838
4.4397917 -3.4329464 0.82054573
4.4396505 -3.4328375 0.79435408
4.4362502 -3.4303319 0.76803368
4.4144716 -3.4134915 0.73831129
4.3833752 -3.3894463 0.70737243
4.226306 -3.2681105 0.65761703
4.1826081 -3.2343199 0.62631387
4.1817012 -3.2337348 0.60171425
4.1653695 -3.2211058 0.57537627
4.1519828 -3.2108693 0.54928529
4.1477747 -3.2076151 0.52452677
4.146524 -3.2066479 0.50055677
4.1420784 -3.2033257 0.4759008
4.1345191 -3.1974797 0.4509702
4.1298676 -3.1939971 0.42681083
4.1221242 -3.1880085 0.40205684
4.1203961 -3.1867874 0.37796661
4.1124516 -3.1806426 0.35372871
4.1075191 -3.1768279 0.3294825
4.0993581 -3.1706302 0.30507109
4.0942316 -3.1666653 0.28132477
4.0920639 -3.165103 0.25748473
4.0898647 -3.1634021 0.23367497
4.0813384 -3.1569207 0.2099307
4.0758786 -3.1526976 0.18607748
4.0703321 -3.1484072 0.16229169
4.0646362 -3.144115 0.1389242
4.0589175 -3.1396916 0.11527433
4.0530586 -3.1352725 0.091693409
4.0471649 -3.1307135 0.068530783
4.5906763 -3.5579426 -0.080609627
4.5810761 -3.5505025 -0.1069228
8.579896 -6.6499743 -0.29874149
4.6257243 -3.5852356 -0.18781902
4.3930268 -3.3654094 1.2252367
4.3974237 -3.368778 1.1999457
4.4198713 -3.386097 1.1794869
4.4665494 -3.4218574 1.1655141
4.5011215 -3.4483433 1.1475488
4.5112591 -3.4562349 1.1231509
4.5060911 -3.4522755 1.0953475
4.5069084 -3.4530265 1.068684
4.4924374 -3.4419391 1.0385082
4.4746747 -3.4284544 1.0082181
4.4660649 -3.4218574 0.97977746
4.469511 -3.4246216 0.95406735
4.4728737 -3.4271979 0.92872155
4.4731326 -3.4273965 0.90235484
4.47017 -3.4252503 0.87540454
4.4640536 -3.4205637 0.84830755
4.460887 -3.4182608 0.8214798
4.4453988 -3.4063926 0.79251623
4.4358373 -3.3991888 0.7651884
4.3832369 -3.358881 0.73043311
4.2904954 -3.2878129 0.68987042
4.2159252 -3.2307868 0.65361387
4.1997771 -3.2184119 0.6265887
4.2019491 -3.2201924 0.60241306
4.1948113 -3.2147226 0.57731336
4.1906376 -3.2116399 0.55235356
4.1864262 -3.2084126 0.52745324
4.1851811 -3.2074585 0.50334334
4.1776433 -3.2017972 0.47819206
4.1731553 -3.1983578 0.45347303
4.1654067 -3.1925344 0.42885557
4.1576447 -3.1865852 0.40397742
4.1528258 -3.183007 0.37948015
4.1479526 -3.1792717 0.35540244
4.1399155 -3.1731117 0.33078459
4.1348262 -3.1693254 0.30649605
4.1265917 -3.1630137 0.2824153
4.1244211 -3.1614642 0.25846845
4.1222181 -3.1597755 0.23455183
4.1167636 -3.1557086 0.21086122
4.1081901 -3.1491368 0.18674259
4.1026273 -3.1448722 0.16285005
4.0969143 -3.1406066 0.1393774
4.0942774 -3.1385853 0.11570835
4.0914998 -3.1365693 0.092072561
4.0855875 -3.1320369 0.068769589
4.0795393 -3.1275136 0.04518507
4.0734606 -3.1228533 0.02167098
4.6067238 -3.538058 -0.0016125611
4.6004124 -3.5333383 -0.028107403
4.6002626 -3.5332234 -0.05460383
4.6061544 -3.5378766 -0.080812365
4.6151061 -3.5447519 -0.10755823
4.6208005 -3.5492539 -0.13431886
4.6264677 -3.553607 -0.16075033
4.6320295 -3.5578792 -0.18764701
4.6498141 -3.5716684 -0.21518418
4.6706653 -3.5876851 -0.2426904
4.6727695 -3.589431 -0.26976895
4.6686497 -3.5862663 -0.29648459
4.4684229 -3.3923321 1.2421249
4.4728951 -3.3957276 1.2164853
4.4954767 -3.4129949 1.1956775
4.4997168 -3.4162135 1.1702681
4.534421 -3.4425614 1.1521978
4.5385056 -3.445787 1.1261804
4.5363855 -3.4441779 1.099048
4.534162 -3.4426141 1.0715743
4.525773 -3.4362447 1.0427383
4.5110292 -3.4251745 1.0130322
4.5024076 -3.4186282 0.98446858
4.5028152 -3.4190614 0.95798284
4.5062027 -3.4216337 0.93253303
4.5095482 -3.4241741 0.90667826
4.5004435 -3.4173844 0.87840456
4.4820123 -3.403389 0.84889019
4.4665246 -3.3917515 0.81978488
4.4355774 -3.3682511 0.78813767
4.2656975 -3.2393665 0.73339391
4.2806573 -3.2507269 0.71096855
4.2523403 -3.2292228 0.68146342
4.24542 -3.2240846 0.6559993
4.2292266 -3.2117867 0.62888557
4.2314138 -3.2135644 0.60462129
4.2304454 -3.2128286 0.58028263
4.229362 -3.2121224 0.55560511
4.2220531 -3.2065713 0.53017408
4.2177167 -3.2032781 0.50557053
4.2132597 -3.2000091 0.48066607
4.208766 -3.1965959 0.45582262
4.2009997 -3.1908131 0.43108258
4.196321 -3.1872594 0.40638027
4.1883922 -3.1813524 0.38145807
4.1866131 -3.180001 0.35752267
4.1754522 -3.1715238 0.33251515
4.1703525 -3.1677649 0.30810195
4.162096 -3.1614933 0.28389835
4.1568165 -3.1575975 0.25963271
4.1546102 -3.1559215 0.23560916
4.1491413 -3.1518815 0.2118132
4.1436515 -3.147711 0.18772842
4.134964 -3.1411119 0.16358805
4.1292348 -3.1368732 0.14000998
4.1265912 -3.134865 0.1162339
4.1238065 -3.1328628 0.092491068
4.120986 -3.1307201 0.069134831
4.1180291 -3.1285875 0.045459755
4.1119308 -3.1239543 0.021802919
4.5848174 -3.4895344 -0.0015995478
4.6033525 -3.5037684 -0.028031694
4.6094189 -3.5083859 -0.054530289
4.6246557 -3.5201106 -0.080866709
4.6305289 -3.524581 -0.10755823
4.6393504 -3.5314236 -0.13440889
4.6388221 -3.5310214 -0.16064273
4.6381898 -3.5305402 -0.18727072
4.6498237 -3.5395238 -0.21446785
4.6583252 -3.5459955 -0.24124295
4.6635475 -3.5500994 -0.26833972
4.6625237 -3.54932 -0.29510924
4.5738907 -3.4411697 1.1582967
4.5657616 -3.435179 1.12911
4.5667105 -3.4358928 1.1026487
4.5614247 -3.4320407 1.0743649
4.5499482 -3.4234056 1.044754
4.5351629 -3.4124053 1.0149963
4.5326705 -3.4105296 0.98772043
4.5361686 -3.4132857 0.9617992
4.5395808 -3.4158533 0.93624526
4.5244584 -3.4044743 0.90657943
4.5122395 -3.3954034 0.87770599
4.4783134 -3.3698742 0.84529662
4.4071708 -3.3164611 0.8061291
4.3328061 -3.2605004 0.76724494
4.2983556 -3.2346935 0.73647946
4.2917161 -3.229697 0.71036255
4.2756877 -3.2176349 0.68285364
4.2687497 -3.2125306 0.65733731
4.261806 -3.2073047 0.63154876
4.2578082 -3.2044127 0.60629493
4.2568421 -3.2036858 0.58188641
4.2557616 -3.2029886 0.55713791
4.2515392 -3.199811 0.53202468
4.2471952 -3.1965413 0.50733376
4.2458386 -3.1956363 0.48269391
4.2444463 -3.1945887 0.45807952
4.2366624 -3.1888459 0.43321702
4.231976 -3.1853185 0.40839031
4.2271409 -3.1817949 0.38362622
4.22225 -3.1781132 0.35928562
4.2141728 -3.1720338 0.33440086
4.2059474 -3.1659575 0.30961597
4.1945529 -3.1573801 0.2850779
4.1892605 -3.1535108 0.26070547
4.1839328 -3.1495004 0.23639888
4.1784487 -3.1454866 0.21251522
4.1698241 -3.1389942 0.18820065
4.1642289 -3.1347823 0.16411208
4.1616025 -3.1329188 0.14055164
4.1558318 -3.1285746 0.11658107
4.153039 -3.1265857 0.092749104
4.1502099 -3.1244559 0.069305047
4.1472445 -3.1223369 0.045540825
4.1380057 -3.115381 0.021778487
4.1353216 -3.1190183 -0.0015283689
4.5811734 -3.4554222 -0.027904714
4.6122084 -3.4788311 -0.054484036
4.6306148 -3.492841 -0.080804907
4.6458621 -3.5043418 -0.10765979
4.6515951 -3.5087938 -0.13442056
4.6479478 -3.5060425 -0.16052915
4.644197 -3.5032132 -0.18699595
4.646522 -3.5050943 -0.21370985
4.6457071 -3.5044796 -0.23989706
4.6509533 -3.5085642 -0.26683351
4.6499314 -3.5077937 -0.29344261
4.6256957 -3.4486408 1.1675941
4.6052847 -3.4335489 1.1351683
4.6001086 -3.4296894 1.1070889
4.5948219 -3.4258728 1.0786999
4.5833235 -3.4172995 1.0489838
4.5746708 -3.4109724 1.0204977
4.5752749 -3.4114227 0.99375129
4.5633688 -3.4026694 0.96440923
4.5606217 -3.4006212 0.93751562
4.5207171 -3.3708663 0.90287405
4.455842 -3.3226132 0.86390752
4.3691158 -3.2579436 0.82199419
4.3503337 -3.2440562 0.79313612
4.3438907 -3.2392519 0.7666977
4.3310437 -3.2297893 0.73965847
4.3212895 -3.2225153 0.71292335
4.3145361 -3.2174792 0.6868093
4.301374 -3.2077806 0.66019946
4.2944179 -3.2025928 0.63430458
4.2873058 -3.1974056 0.60850281
4.2863445 -3.1966887 0.58400697
4.2852683 -3.1960022 0.55916977
4.2810392 -3.1928484 0.53396779
4.2766876 -3.1896031 0.50918943
4.2722154 -3.1863832 0.48410735
4.2708235 -3.1853454 0.45942187
4.26614 -3.1819682 0.43480739
4.2645659 -3.180794 0.41019201
4.2628446 -3.179626 0.38560367
4.2610683 -3.1783011 0.36140531
4.2529726 -3.1722624 0.3363781
4.2447271 -3.1662278 0.31145072
4.2333016 -3.1577051 0.28677228
4.2248707 -3.151531 0.26206329
4.2164025 -3.1452141 0.2374558
4.2109041 -3.1412272 0.21346678
4.2022548 -3.1347752 0.18904524
4.1935148 -3.1282551 0.16472672
4.1877522 -3.1240702 0.14097308
4.1850944 -3.1220875 0.11701868
4.1822944 -3.1201122 0.093097523
4.1794572 -3.1179955 0.069565594
4.1733522 -3.1135542 0.045677893
4.164083 -3.1066391 0.021844184
4.1520205 -3.1032834 -0.0015295215
4.1644325 -3.1126738 -0.025283305
4.6023145 -3.4399652 -0.054189328
4.6458111 -3.4726031 -0.080804907
4.6611085 -3.4840372 -0.10765979
4.6731167 -3.4931402 -0.13460074
4.669457 -3.4904044 -0.16074447
4.6625657 -3.4852533 -0.18712145
4.6461387 -3.4731004 -0.21299319
4.6453238 -3.4724915 -0.23909257
4.64434 -3.4718826 -0.26558244
4.6401954 -3.4687841 -0.29187024
4.6140742 -3.4088795 1.1335536
4.6304698 -3.4209924 1.1106886
4.6313548 -3.421771 1.083657
4.6260171 -3.4178276 1.055228
4.6080804 -3.4047 1.0245236
4.6087012 -3.4051585 0.99767184
4.5750885 -3.3804469 0.96365744
4.5413308 -3.3555043 0.93043017
4.4144101 -3.2617247 0.8786934
4.3926997 -3.2458022 0.84881377
4.3833013 -3.2388573 0.82189906
4.3706756 -3.229646 0.79417109
4.3673263 -3.2271709 0.76824468
4.3637805 -3.2246687 0.74274284
4.3602347 -3.2220485 0.71692598
4.3503575 -3.2147498 0.69017613
4.3402829 -3.2074223 0.66392148
4.3333178 -3.2022748 0.63788503
4.3261957 -3.1971285 0.61194158
4.3221207 -3.1941168 0.586882
4.3210511 -3.1934433 0.56192064
4.3136926 -3.188005 0.53620589
4.3093348 -3.1847844 0.51132268
4.3048558 -3.1815903 0.48613411
4.3003368 -3.1782506 0.46100649
4.2956443 -3.1748984 0.43630454
4.2940702 -3.1737349 0.41160026
4.2923489 -3.1725783 0.38692299
4.2905712 -3.1712646 0.36263698
4.2824535 -3.1652646 0.33752093
4.2773218 -3.161587 0.31273398
4.2721367 -3.1577544 0.28837392
4.2636843 -3.1516218 0.2635226
4.2551937 -3.1453459 0.23877268
4.2465439 -3.1390667 0.21448477
4.2378697 -3.1326549 0.18993859
4.2291045 -3.1261754 0.16549544
4.2233257 -3.1220179 0.14161895
4.2206616 -3.1200483 0.11753974
4.2147136 -3.1157651 0.093424141
4.2118678 -3.1136615 0.069786832
4.2026033 -3.106926 0.045758013
4.1964455 -3.1023734 0.021851646
4.1780777 -3.0944369 -0.0016248755
4.1685572 -3.0874984 -0.025316855
4.1935315 -3.1059961 -0.04930722
4.6546407 -3.4476485 -0.080797173
4.6825414 -3.4683144 -0.10790601
4.7008643 -3.4820132 -0.13506323
4.7128792 -3.4909129 -0.16181582
4.6643825 -3.4551163 -0.21323784
4.6572919 -3.4498639 -0.23903283
4.6500344 -3.4446137 -0.26514727
4.6364732 -3.4345679 -0.29079166
4.6329732 -3.3916929 1.1077287
4.6586308 -3.4106014 1.0865468
4.668787 -3.4180367 1.0615721
4.6290979 -3.3891041 1.0258988
4.5614128 -3.33955 0.98427129
4.4779243 -3.2785456 0.94016951
4.443974 -3.2536886 0.90756637
4.434824 -3.2469893 0.87992835
4.4255066 -3.2402861 0.852413
4.4192071 -3.2356737 0.82597649
4.4159117 -3.2333791 0.79981953
4.4094515 -3.2286489 0.77316934
4.4027896 -3.2238891 0.74698102
4.3961234 -3.2190077 0.7205106
4.3893538 -3.214051 0.69413131
4.3823891 -3.2090688 0.66821402
4.3754168 -3.203963 0.6420182
4.3682871 -3.1988595 0.61591524
4.3673458 -3.1981702 0.59112245
4.3662887 -3.1975129 0.56598365
4.3557854 -3.189821 0.53970289
4.3514256 -3.1866286 0.51466221
4.3438058 -3.1811647 0.48896047
4.3361425 -3.1755528 0.46335515
4.3314433 -3.1722276 0.43853056
4.3267303 -3.1687756 0.41340157
4.3250098 -3.1676319 0.38861755
4.3200884 -3.1640275 0.36396143
4.3150945 -3.1603696 0.33900347
4.3130975 -3.1590228 0.31433892
4.3079014 -3.1552172 0.28985602
4.2994275 -3.1491256 0.26487994
4.2940621 -3.145196 0.24018137
4.2853894 -3.1389587 0.21575297
4.2766924 -3.1325879 0.19106415
4.2679024 -3.1261497 0.16647835
4.2621088 -3.1220202 0.14246128
4.259439 -3.1200645 0.11823938
4.2534742 -3.1158094 0.093981065
4.2474704 -3.1114113 0.07015112
4.2413282 -3.1070259 0.046031602
4.2351513 -3.1025009 0.021982495
4.2198825 -3.0969779 -0.0016358626
4.2040329 -3.0854588 -0.025450302
4.1944485 -3.0784245 -0.049159594
4.2288103 -3.1037571 -0.073169656
4.7090592 -3.4566178 -0.26765037
4.6451254 -3.409688 -0.29039845
4.6144433 -3.3474238 1.0727209
4.4908509 -3.2577672 1.0177717
4.5069056 -3.2695336 0.99554729
4.5043097 -3.2676504 0.96876347
4.498435 -3.2635086 0.9413774
4.47686 -3.2478564 0.91128045
4.4676943 -3.2412069 0.88353699
4.4677334 -3.2413545 0.85771549
4.4645596 -3.2390516 0.83170515
4.4581456 -3.2345171 0.80480701
4.4485526 -3.2275569 0.77745086
4.4387527 -3.2205651 0.75059372
4.4320779 -3.2157223 0.72399968
4.4284358 -3.2130799 0.69799101
4.4246011 -3.2104154 0.6724112
4.4176216 -3.2053511 0.64605612
4.4042015 -3.1957309 0.61891091
4.4064107 -3.1973341 0.59441984
4.4116511 -3.2012541 0.56995159
4.3979826 -3.1913357 0.54310507
4.3936214 -3.1881711 0.51790702
4.3891377 -3.1850343 0.49239877
4.3814626 -3.1794648 0.46661589
4.37676 -3.1761689 0.44161627
4.3688903 -3.1704581 0.41600934
4.3640213 -3.1670408 0.39078283
4.3527832 -3.1588852 0.36545691
4.3477788 -3.1552534 0.34039223
4.3426247 -3.1516287 0.31539166
4.3374157 -3.1478484 0.29082114
4.3320756 -3.1440883 0.26594999
4.3266973 -3.1401849 0.24114457
4.3211594 -3.1362808 0.21676946
4.3155971 -3.1322436 0.19209665
4.3099427 -3.1281397 0.16749115
4.3041339 -3.1240385 0.14331611
4.3014584 -3.1220965 0.11893371
4.2923164 -3.1155753 0.094445422
4.2894559 -3.1134992 0.07052698
4.2832952 -3.1091416 0.046247017
4.2770991 -3.1046441 0.022037456
4.2586288 -3.096915 -0.0017375315
4.2490468 -3.09006 -0.025732638
4.23943 -3.0830665 -0.049620152
4.2265177 -3.0737889 -0.072988458
4.6820393 -3.4054477 -0.29187578
4.5199041 -3.2488375 1.0474379
4.5143824 -3.2448688 1.0198863
4.524251 -3.2520819 0.99623483
4.5247741 -3.2524579 0.97010338
4.5282683 -3.2550895 0.94463933
4.5128961 -3.2440393 0.91572577
4.5068498 -3.2396929 0.88847643
4.5069075 -3.2398536 0.86251384
4.5037403 -3.237577 0.83636457
4.4941854 -3.2308271 0.80876046
4.4877167 -3.226177 0.78182781
4.4747596 -3.2169805 0.75430167
4.4680772 -3.2121768 0.72758383
4.464437 -3.2095594 0.7014513
4.4606023 -3.2069211 0.67574942
4.4536133 -3.2018962 0.6492703
4.4370112 -3.1900778 0.62155956
4.4392371 -3.191678 0.5969637
4.4445033 -3.1955822 0.57238901
4.4371123 -3.1902678 0.54621297
4.4327483 -3.1871302 0.52087498
4.4282613 -3.1840212 0.4952246
4.4237323 -3.1807647 0.46963495
4.4190254 -3.1774976 0.44447771
4.4111414 -3.1718285 0.41871071
4.4062667 -3.1684401 0.39332405
4.3950024 -3.1603401 0.36784035
4.3868256 -3.1544602 0.34236836
4.3816624 -3.1508636 0.31722531
4.3764434 -3.1471107 0.29251441
4.364758 -3.138823 0.26711303
4.3625345 -3.1372244 0.2423767
4.3538151 -3.1310692 0.2177202
4.351408 -3.129338 0.19308104
4.3425694 -3.1229815 0.16822793
4.3367448 -3.1189079 0.14394745
4.3340631 -3.1169791 0.11945803
4.3280649 -3.1127801 0.094932258
4.3283677 -3.112998 0.07094276
4.3221893 -3.1086686 0.046520058
4.3159742 -3.1041987 0.022167759
4.3006244 -3.0988562 -0.0017491322
4.2910113 -3.0920434 -0.025904827
4.2813635 -3.0850914 -0.049952924
4.277915 -3.0827198 -0.073643066
4.2680917 -3.0756412 -0.097510986
4.5542793 -3.2433817 1.1045842
4.5489092 -3.2395573 1.0771953
4.5528131 -3.2424574 1.0516746
4.5472898 -3.2385237 1.0240178
4.5572047 -3.2457047 1.0002624
4.5608788 -3.2483215 0.97469538
4.5644007 -3.2509501 0.94910812
4.5458574 -3.2377427 0.91943854
4.5398054 -3.2334323 0.8920837
4.5335889 -3.2291238 0.86481595
4.5367126 -3.2313488 0.83976191
4.5302887 -3.2268922 0.81261683
4.5206637 -3.2200365 0.78501362
4.5108299 -3.2131505 0.75791293
4.5041399 -3.2083852 0.73107147
4.5005007 -3.2057931 0.70481515
4.4966669 -3.2031803 0.67899132
4.4896674 -3.1981945 0.65238827
4.4730253 -3.1864569 0.62455386
4.4784312 -3.1903083 0.60025954
4.4837265 -3.1941984 0.57554287
4.4699922 -3.1844141 0.54844809
4.4687901 -3.1835575 0.52337617
4.4642978 -3.180475 0.49760151
4.4597631 -3.1772442 0.47188756
4.45505 -3.1740038 0.4466078
4.4503212 -3.1706347 0.42101654
4.4454398 -3.1672738 0.39548764
4.4373217 -3.16149 0.37012866
4.4259524 -3.1533895 0.34424967
4.4207802 -3.1498208 0.31896424
