# .PCD v0.7 - Point Cloud Data file format
VERSION 0.7
FIELDS x y z
SIZE 4 4 4
TYPE F F F
COUNT 1 1 1
WIDTH 1518
HEIGHT 1
VIEWPOINT 0 0 0 1 0 0 0
POINTS 1518
DATA ascii
1.6693195 1.3861911 -0.42437124
1.6265576 1.3506819 -0.42353636
1.5927143 1.3225317 -0.42441595
1.5617938 1.2968565 -0.42584822
1.5279809 1.2687345 -0.42610294
9.4376736 7.9112921 -0.36315995
8.4102211 7.0497627 -0.37379786
7.6699691 6.4292555 -0.38598993
7.6088324 6.3777823 -0.42833427
7.0779753 5.9328136 -0.44072396
6.2812419 5.2647991 -0.42807898
5.7237425 4.7975154 -0.42430043
5.2859359 4.4305553 -0.42346126
4.8662801 4.0786648 -0.41852307
4.5571699 3.8195846 -0.41922584
4.2959919 3.6005507 -0.42093354
4.0259042 3.3741851 -0.41824746
3.8036933 3.1878331 -0.41797838
3.6143174 3.0291193 -0.41887075
3.4429257 2.8854778 -0.41938895
3.2656736 2.7368279 -0.41743284
3.1301563 2.6232562 -0.4189533
2.9828572 2.4997222 -0.41693673
2.8683007 2.4037206 -0.41822347
2.7568138 2.3102093 -0.41860536
2.6483386 2.2193072 -0.41790071
2.5517871 2.138397 -0.41810408
2.4612653 2.0624666 -0.41817454
2.3796842 1.994104 -0.41852933
2.3040943 1.9306937 -0.41921848
2.2374067 1.8748133 -0.4206869
2.1796966 1.8263909 -0.42290017
2.1160436 1.7730554 -0.4234485
2.0613058 1.72719 -0.42507684
1.9977875 1.673908 -0.42400169
1.9490328 1.6330575 -0.42558548
1.8944359 1.5872554 -0.42527241
1.836928 1.5390724 -0.42347404
1.7912607 1.5007567 -0.42395681
1.7514898 1.4674358 -0.42533377
1.7088534 1.4316634 -0.42536137
1.6691439 1.3983952 -0.42579478
1.626532 1.3626951 -0.42499685
1.5898732 1.3319355 -0.42512804
1.5561317 1.3036683 -0.42577738
1.5282974 1.2803043 -0.42767221
9.4149895 7.9624815 -0.36362055
8.3942852 7.0989966 -0.37446275
7.6329021 6.4550991 -0.38553831
7.5600719 6.393281 -0.42715567
7.0460625 5.9586015 -0.44035158
6.2552314 5.2896371 -0.42787522
5.7057328 4.8249621 -0.42452201
5.2665539 4.4535775 -0.42346126
4.8484373 4.0998588 -0.41852307
4.5553379 3.8520126 -0.42059943
4.283215 3.6217763 -0.42122608
4.023037 3.4017763 -0.41948763
3.7927198 3.2069128 -0.4183062
3.6070085 3.0498853 -0.41956195
3.4332726 2.9029841 -0.41975206
3.2596383 2.7560711 -0.41819459
3.1157131 2.6343801 -0.41855469
2.9837856 2.5227444 -0.41860116
2.8577852 2.4162128 -0.41822347
2.7437444 2.3197112 -0.41815379
2.6386299 2.2308416 -0.41790071
2.5424323 2.1495109 -0.41810408
2.4552007 2.0756872 -0.41867897
2.3768733 2.0094671 -0.41957304
2.3015573 1.9457242 -0.42029756
2.2321575 1.8870541 -0.42124411
2.168756 1.8333898 -0.42232558
2.1082871 1.7822715 -0.4234485
2.0537498 1.7361677 -0.42507684
1.9992981 1.6900762 -0.42588335
1.9477732 1.6465205 -0.42687511
1.8933722 1.6004767 -0.42659724
1.8390082 1.5545226 -0.42551324
1.7905661 1.5135206 -0.42535141
1.748003 1.4775432 -0.42604861
1.7055207 1.4415829 -0.42609349
1.6630265 1.4056648 -0.42579478
1.6205705 1.3697792 -0.42499685
1.5840464 1.3388599 -0.42512804
1.5504286 1.3104458 -0.42577738
1.5256135 1.2894261 -0.4284915
9.3861122 8.0085669 -0.36320478
8.3424559 7.1178308 -0.37295771
7.5928016 6.4782214 -0.38441354
7.5232148 6.418623 -0.42613277
7.0200138 5.9893041 -0.43986842
6.2321086 5.316895 -0.42744631
5.6965103 4.8599515 -0.42501619
5.244122 4.4739985 -0.42286095
4.8245883 4.1159296 -0.41767716
4.5414681 3.8743956 -0.42056158
4.2644248 3.637917 -0.42064005
3.999285 3.4117303 -0.41828227
3.7816691 3.2259715 -0.41837376
3.5996034 3.0706596 -0.42000544
3.4205899 2.9179511 -0.41951665
3.2505562 2.772805 -0.41835174
3.101249 2.6454422 -0.41794264
2.9698114 2.5332332 -0.41798067
2.8472319 2.4286735 -0.41802752
2.7306612 2.3291571 -0.41751429
2.625937 2.239831 -0.41725096
2.5330458 2.160598 -0.41792977
2.4520316 2.0914218 -0.4195191
2.3710446 2.0223453 -0.41993171
2.2930622 1.9557624 -0.42013976
2.2209775 1.894281 -0.42053407
2.1578126 1.8403424 -0.42160249
2.1005073 1.791468 -0.42330396
2.0461719 1.7451267 -0.42493603
1.9919217 1.6987982 -0.42574626
1.937656 1.652518 -0.42609698
1.8805294 1.6037413 -0.425143
1.8292979 1.5600504 -0.42470762
1.783962 1.5213335 -0.42522866
1.7415564 1.4851707 -0.42592877
1.7021511 1.4515152 -0.42670849
1.6568942 1.4129221 -0.42568076
1.6175097 1.379337 -0.42565268
1.5811182 1.3482563 -0.42580363
1.5476221 1.3196933 -0.42647269
1.51999 1.296085 -0.4283869
9.362915 8.0596352 -0.36366454
8.329072 7.169445 -0.37375435
7.5348792 6.4858251 -0.38291016
7.4833055 6.4412041 -0.4254601
7.0115571 6.0351501 -0.44098434
6.2236333 5.3567605 -0.42846403
5.6752505 4.8847609 -0.42501619
5.2186403 4.4917507 -0.42238259
4.8124919 4.1420269 -0.4181906
4.5186129 3.8890908 -0.42001256
4.2455583 3.6539483 -0.42034775
3.9814091 3.4266078 -0.41797242
3.764607 3.2399023 -0.41804615
3.5802727 3.0812602 -0.41931465
3.4078255 2.9328485 -0.41951665
3.2354798 2.7844257 -0.41797107
3.0867312 2.656414 -0.41754422
2.955786 2.5436337 -0.41756475
2.8336651 2.4385414 -0.4175939
2.7175314 2.3385186 -0.41706294
2.6131995 2.2487381 -0.41678214
2.5206566 2.169102 -0.41744322
2.4370103 2.0970478 -0.41851062
2.3592637 2.0301466 -0.41941008
2.2845068 1.9657491 -0.42013976
2.2097604 1.901432 -0.41997707
2.1497622 1.84974 -0.42160249
2.0897436 1.7980977 -0.42271191
2.0356131 1.7515217 -0.42432636
1.9786451 1.7024441 -0.42449224
1.9304271 1.6609569 -0.42609698
1.8735139 1.6119313 -0.425143
1.8253895 1.5705261 -0.42538714
1.7773069 1.529103 -0.42522866
1.7350596 1.4927555 -0.42592877
1.689984 1.4539235 -0.42524466
1.6478072 1.4176381 -0.42493132
1.6085724 1.3838836 -0.42488575
1.5752203 1.3551424 -0.42580363
1.5418491 1.3264335 -0.42647269
1.505634 1.2952324 -0.42592961
9.3276739 8.1004238 -0.36301768
8.3183584 7.2236505 -0.37410691
7.5330477 6.5416875 -0.38374081
7.4492526 6.4686918 -0.42460719
6.9969587 6.0759344 -0.44124311
6.2031631 5.3864379 -0.42823741
5.6509552 4.9069347 -0.42440298
5.1960645 4.5119367 -0.42178309
4.7855601 4.1553335 -0.4170886
4.5045595 3.911339 -0.41997471
4.220767 3.6647911 -0.41917813
3.9664364 3.4439616 -0.41769737
3.7504508 3.2563119 -0.41778609
3.5697489 3.0994182 -0.41941249
3.3950129 2.9477043 -0.41928121
3.2233164 2.7985311 -0.41774759
3.0721934 2.6673238 -0.41693276
2.9446757 2.5565209 -0.41736057
2.8230147 2.4508967 -0.41739812
2.7043884 2.3478246 -0.41642407
2.6004508 2.2575908 -0.41613302
2.5111845 2.180094 -0.41726911
2.4307787 2.1102149 -0.41884631
2.3503995 2.040436 -0.41924709
2.2730031 1.9731766 -0.41944283
2.1985397 1.9085356 -0.41926762
2.1416874 1.859117 -0.42145401
2.0848107 1.8097445 -0.42315939
2.0308819 1.7629309 -0.42479521
1.9712147 1.7110759 -0.42435557
1.9202688 1.6668532 -0.42531919
1.8664795 1.6201053 -0.4250136
1.8127261 1.5734475 -0.42390239
1.7648295 1.5318191 -0.4237121
1.722746 1.4952918 -0.42438003
1.6807429 1.458783 -0.42439619
1.6387274 1.4223161 -0.42406827
1.6025355 1.3909037 -0.42477465
1.5693092 1.3620173 -0.42569482
1.5360637 1.3331631 -0.42636621
1.5028695 1.3043077 -0.4266445
9.221756 8.0792933 -0.36026406
8.2397766 7.2187157 -0.37198582
7.4868169 6.5590611 -0.38284001
7.4121499 6.4934187 -0.42410332
6.9674463 6.1038351 -0.44105732
6.1737328 5.4083118 -0.42783073
5.6294909 4.9315453 -0.42440298
5.1763282 4.5345659 -0.42178309
4.7585874 4.1684699 -0.41631907
4.484519 3.9283888 -0.41970041
4.2018061 3.6806061 -0.41888601
3.9601588 3.4689329 -0.41862628
3.7362068 3.2726452 -0.41778609
3.5532641 3.1124008 -0.41906732
3.3821187 2.9624898 -0.41928121
3.2052257 2.8074458 -0.41698664
3.0605259 2.6807034 -0.41693276
2.9334927 2.569345 -0.41736057
2.8122938 2.463191 -0.41739812
2.6970372 2.3621588 -0.41687521
2.5934927 2.2714708 -0.41660163
2.5016482 2.1910303 -0.41726911
2.4215481 2.1208012 -0.41884631
2.3385618 2.0481215 -0.41872564
2.2614613 1.9805267 -0.41890371
2.1901913 1.9181104 -0.41926762
2.1335552 1.8684441 -0.42145401
2.0768943 1.8188239 -0.42315939
2.0231702 1.7717755 -0.42479521
1.96373 1.7196605 -0.42435557
1.915876 1.6777543 -0.42596361
1.8593928 1.6282339 -0.4250136
1.8058435 1.5813419 -0.42390239
1.7552373 1.5369729 -0.42301521
1.713316 1.5002645 -0.42366558
1.6714749 1.4635749 -0.42366448
1.6353902 1.4319783 -0.4248175
1.5993329 1.400406 -0.4255414
1.5691096 1.3738935 -0.42726275
1.530232 1.3398527 -0.42636621
1.4942905 1.3083367 -0.42582563
9.1220665 8.0625782 -0.35710248
8.1614113 7.2132463 -0.3692944
7.4171948 6.5554895 -0.38021985
7.3779149 6.5205441 -0.42325184
6.940764 6.1341934 -0.44057232
6.1384006 5.42488 -0.42658845
5.6137805 4.9612412 -0.42445302
5.162353 4.5622869 -0.4219003
4.7432909 4.1917892 -0.41624415
4.4702721 3.9505138 -0.41966236
4.188642 3.7014987 -0.41888544
3.9479194 3.4887724 -0.41866004
3.727742 3.294086 -0.41818047
3.5396664 3.1278896 -0.41881999
3.3750057 2.9823842 -0.41977081
3.1987884 2.8265674 -0.41752407
3.0517282 2.6966195 -0.41711774
2.9193597 2.5795629 -0.41674089
2.8015356 2.4754531 -0.41720238
2.6867211 2.3739185 -0.41668749
2.5864794 2.2853477 -0.41688955
2.4949851 2.2045057 -0.41758111
2.4151907 2.1339262 -0.41918159
2.3296194 2.0583203 -0.41856289
2.2557139 1.9929515 -0.41928521
2.19051 1.935343 -0.42078498
2.1340857 1.8854251 -0.42302746
2.0805297 1.8381094 -0.42538136
2.02122 1.7857103 -0.42587292
1.9677827 1.7384384 -0.42672536
1.9143287 1.6912143 -0.42711872
1.8580576 1.641444 -0.42620781
1.798943 1.589221 -0.42377672
1.7485309 1.5446316 -0.42289305
1.7067702 1.5077407 -0.42354634
1.6679654 1.4734092 -0.42427966
1.6348896 1.4441915 -0.42620176
1.5960947 1.4099216 -0.42619663
1.5659848 1.3832753 -0.42793733
1.5301187 1.3515939 -0.4278622
1.5000349 1.3249733 -0.42899641
9.0226851 8.0451365 -0.35458285
8.1065493 7.228003 -0.3682355
7.3739533 6.5748024 -0.3794702
7.3377419 6.5422854 -0.42258081
6.9139328 6.1644201 -0.44057232
6.1117597 5.4490161 -0.42638528
5.5949907 4.9882841 -0.42467397
5.1394868 4.5821738 -0.42166156
4.7278652 4.2150393 -0.41650045
4.4413576 3.959609 -0.4185659
4.1695437 3.7171478 -0.41859353
3.9355657 3.5085564 -0.41896948
3.7191443 3.3155003 -0.41883489
3.5259848 3.1433046 -0.41881999
3.356154 2.9919057 -0.41904581
3.1864247 2.8404977 -0.41752407
3.039933 2.7099094 -0.41711774
2.9022777 2.5871074 -0.41590992
2.7849121 2.482487 -0.41633594
2.6734407 2.3830371 -0.41623655
2.576483 2.2966115 -0.41688955
2.4824493 2.2127922 -0.41709498
2.4029651 2.1418667 -0.41867778
2.3235061 2.0710416 -0.41908413
2.2527728 2.0079234 -0.42036307
2.1878173 1.9500277 -0.42189816
2.1258385 1.8947188 -0.42302746
2.0724895 1.8471699 -0.42538136
2.0105288 1.7919453 -0.42526367
1.9601786 1.7470078 -0.42672536
1.9069312 1.6995511 -0.42711872
1.8566258 1.6546583 -0.42753142
1.7977352 1.602174 -0.42513499
1.7417746 1.5522462 -0.42289305
1.7001752 1.5151734 -0.42354634
1.6643853 1.4832259 -0.42501119
1.6314348 1.4538618 -0.42695081
1.5956467 1.4219692 -0.4277297
1.5599343 1.3900949 -0.42793733
1.5270611 1.3608009 -0.42866343
1.4942394 1.3315059 -0.42899641
8.9875097 8.0844402 -0.35394987
8.1155844 7.29987 -0.36951706
7.3277974 6.5912652 -0.37805456
7.2917328 6.5585957 -0.42106074
6.9014916 6.2075911 -0.4410142
6.0966434 5.4834728 -0.42656538
5.5789881 5.0178804 -0.424723
5.1165619 4.6019626 -0.42106247
4.7123432 4.2382498 -0.4164249
4.4269519 3.9815707 -0.41852826
4.1590939 3.7405295 -0.41888446
3.923131 3.5283136 -0.41900265
3.7046587 3.3317111 -0.41857401
3.5151455 3.1612761 -0.41891745
3.3430839 3.0065358 -0.4188104
3.1769075 2.8569882 -0.41768062
3.0309856 2.7257609 -0.41730234
2.8909779 2.599761 -0.41570634
2.7711833 2.4920335 -0.41570756
2.6659188 2.3972886 -0.41649976
2.5693376 2.3104393 -0.41717702
2.4814329 2.2313921 -0.41837862
2.3993735 2.157526 -0.41951647
2.3202212 2.0863516 -0.41996324
2.2468836 2.0203354 -0.42074379
2.1793044 1.9595701 -0.4217447
2.1204407 1.9065746 -0.42345214
2.0615554 1.8536284 -0.42464459
1.9998381 1.7981359 -0.42451358
1.9525539 1.7555591 -0.42658788
1.902379 1.7104464 -0.42762899
1.8551307 1.6679064 -0.42872444
1.7936045 1.6125896 -0.42568782
1.7378598 1.562416 -0.4234674
1.6935643 1.5225923 -0.4234271
1.6579143 1.4904889 -0.42489445
1.6250921 1.4609814 -0.42683637
1.5837468 1.4238113 -0.42608511
1.5510248 1.3943447 -0.42704436
1.5182824 1.3649099 -0.4277553
1.4912727 1.3405815 -0.42971012
9.0186539 8.1839285 -0.35657936
8.1183491 7.366693 -0.37110296
7.2845144 6.6100612 -0.37730595
7.2514853 6.5798593 -0.42039055
6.8743405 6.2376451 -0.4410142
6.0842156 5.5205073 -0.4273771
5.554152 5.0395546 -0.42450225
5.0906587 4.6190042 -0.42058533
4.696692 4.2613897 -0.41668102
4.4037657 3.9956124 -0.41798046
4.1427331 3.7586415 -0.41888446
3.9076986 3.545398 -0.41900265
3.6900861 3.3478441 -0.41857401
3.5042 3.1791983 -0.41926223
3.3270528 3.0184808 -0.41844809
3.1644113 2.8708229 -0.41768062
3.0133073 2.7337379 -0.41650671
2.888237 2.6201797 -0.41695222
2.7660339 2.5093181 -0.41657361
2.6583071 2.411505 -0.41695052
2.559232 2.3216281 -0.41717702
2.471673 2.2421982 -0.41837862
2.3928058 2.1705773 -0.42002007
2.3139629 2.0990567 -0.4204843
2.2409124 2.0327194 -0.42128253
2.1707335 1.9690604 -0.4217447
2.1092398 1.9132127 -0.42287835
2.0477278 1.8574176 -0.42346174
1.9891154 1.8042524 -0.42390454
1.9420193 1.7614715 -0.42596146
1.8948977 1.7187307 -0.42762899
1.8478354 1.6759851 -0.42872444
1.7894006 1.6229846 -0.42636675
1.7367201 1.5751483 -0.42486036
1.6954387 1.5377074 -0.42556924
1.6542374 1.5002865 -0.42562577
1.6158621 1.4654827 -0.42608756
1.5775192 1.4307081 -0.42608511
1.544926 1.4010991 -0.42704436
1.5123124 1.3715217 -0.4277553
1.476921 1.3393781 -0.42725462
9.0001488 8.2390289 -0.35683939
8.0832586 7.3994184 -0.37058827
7.2440963 6.631249 -0.37636423
7.2112021 6.6009064 -0.41937909
6.8384352 6.2596874 -0.44013444
6.0744686 5.5601816 -0.42810431
5.5349979 5.0663843 -0.42446107
5.0647144 4.6359172 -0.41986853
4.683815 4.2871156 -0.41697156
4.3891745 4.0174303 -0.41804665
4.1349249 3.7845817 -0.41956392
3.8893299 3.5597956 -0.41850939
3.6783257 3.3665512 -0.41872695
3.4960463 3.1997218 -0.41978636
3.3253381 3.0434828 -0.4197399
3.1489978 2.881988 -0.41715154
3.0013611 2.7468698 -0.4163647
2.8767877 2.6327667 -0.41681609
2.760797 2.5266151 -0.41730905
2.6534953 2.4283299 -0.41772649
2.5519493 2.3354008 -0.41752449
2.4675953 2.2582049 -0.41923371
2.3861806 2.1836221 -0.42041081
2.3076489 2.1117568 -0.42089614
2.2291784 2.039876 -0.42063832
2.1592796 1.9759129 -0.42108616
2.098032 1.9197993 -0.4222053
2.0367663 1.8637382 -0.42277393
1.9812348 1.8129243 -0.42381078
1.9314814 1.7673355 -0.42524365
1.8873913 1.7269925 -0.42753968
1.8376758 1.6814431 -0.42797589
1.7823129 1.630787 -0.42628244
1.7326775 1.5853158 -0.42547488
1.6915575 1.547693 -0.42620325
1.6505175 1.5100905 -0.42627901
1.6122921 1.4751172 -0.42676011
1.5684465 1.4350021 -0.42524457
1.5388088 1.4078368 -0.42697155
1.5035038 1.3755367 -0.42688313
1.4626194 1.3380851 -0.42472994
8.9870615 8.2994137 -0.35775289
8.0681047 7.4505095 -0.37138042
7.20649 6.6548495 -0.37591547
7.1737304 6.6243653 -0.41887683
6.8110571 6.2894659 -0.44013444
6.0587478 5.594573 -0.4287127
5.5157042 5.093133 -0.42468169
5.041574 4.6553268 -0.41963011
4.6679282 4.3101559 -0.41722754
4.3658776 4.0312562 -0.41749913
4.112648 3.7973025 -0.41898078
3.8708994 3.5740902 -0.41820028
3.6636014 3.3825686 -0.41872695
3.4791927 3.212306 -0.41944173
3.3120267 3.0579631 -0.4197399
3.1306798 2.8904262 -0.4163917
2.9807816 2.7520313 -0.41517165
2.8624189 2.6426592 -0.41640094
2.7468941 2.5360038 -0.41687614
2.6428745 2.4398849 -0.41772649
2.5417349 2.3465135 -0.41752449
2.4548707 2.2663212 -0.41874793
2.3709376 2.1887579 -0.41940382
2.2927237 2.1165538 -0.41985431
2.2174137 2.0469587 -0.42009974
2.1506374 1.9853158 -0.42108616
2.0896354 1.9289354 -0.4222053
2.0286148 1.8726075 -0.42277393
1.9733056 1.8215518 -0.42381078
1.9209183 1.7731311 -0.42461738
1.8770069 1.7325981 -0.4268958
1.8218348 1.6816118 -0.42599145
1.7723536 1.6359391 -0.42560363
1.7229193 1.5902539 -0.42477852
1.6847883 1.5550591 -0.42620325
1.641093 1.5146753 -0.42554781
1.6002058 1.4769377 -0.42526269
1.5621703 1.4418321 -0.42524457
1.5298392 1.4119421 -0.42618811
1.4946781 1.3794907 -0.42608222
1.456767 1.3444542 -0.42472994
8.9136372 8.3039608 -0.35563058
8.0155373 7.4670277 -0.36988267
7.1688304 6.6782618 -0.37495372
7.1333513 6.644978 -0.41769671
6.7692909 6.3058429 -0.43872383
6.0371504 5.62363 -0.42848349
5.4991527 5.1224828 -0.42472941
5.0240822 4.6799531 -0.41950902
4.6433887 4.3251839 -0.41638336
4.3511138 4.0529385 -0.41746154
4.101757 3.8205361 -0.4192704
3.8524344 3.5883071 -0.41761553
3.6516716 3.4011898 -0.41879255
3.4737015 3.2354271 -0.42022711
3.2986684 3.0724003 -0.4195039
3.1123643 2.8987741 -0.41540918
2.9659176 2.7623775 -0.41456178
2.8480344 2.6524913 -0.415782
2.7358184 2.5479801 -0.4166804
2.62938 2.4487638 -0.41708773
2.5314882 2.3575964 -0.41734335
2.4421384 2.2743843 -0.41808739
2.358546 2.1964571 -0.4187316
2.2806497 2.123914 -0.41917023
2.2056458 2.0539927 -0.41940334
2.1419706 1.9946958 -0.42093289
2.0812151 1.9380498 -0.42205641
2.0204408 1.8814563 -0.42262936
1.9625313 1.8275301 -0.42306146
1.907536 1.7762558 -0.42322835
1.8666258 1.7381611 -0.42611837
1.8116789 1.6869367 -0.42520034
1.7652149 1.643672 -0.42547733
1.7131673 1.5951523 -0.42395961
1.6751927 1.5597936 -0.4253695
1.6344846 1.5218365 -0.42543089
1.5965683 1.4865335 -0.42589718
1.5614872 1.4538702 -0.42666528
1.5236802 1.4186192 -0.42607909
1.4858629 1.3834093 -0.42517501
1.4509032 1.3508129 -0.42462614
8.8602476 8.3267307 -0.35494667
7.9601202 7.4805427 -0.36882812
7.1282449 6.6987858 -0.37435618
7.0872254 6.6600046 -0.41669342
6.733182 6.3273034 -0.43816873
6.0068698 5.6445756 -0.42807832
5.4824333 5.1517701 -0.42517024
5.0092969 4.70717 -0.41998547
4.6187911 4.340065 -0.41587183
4.3305488 4.0692167 -0.41718799
4.0822091 3.8357294 -0.41897905
3.8367407 3.6050823 -0.41761553
3.6282861 3.4090946 -0.41781253
3.4595511 3.2505534 -0.42022711
3.2738931 3.0761111 -0.41805607
3.0996864 2.9123268 -0.41540918
2.9623325 2.7832751 -0.41575417
2.8364336 2.6648929 -0.415782
2.7218454 2.5572348 -0.4162477
2.6186702 2.4602134 -0.41708773
2.5211773 2.3686197 -0.41734335
2.4350162 2.2876723 -0.41857299
2.3461165 2.2040751 -0.4182283
2.268539 2.1311941 -0.41864952
2.1938426 2.0609481 -0.41886494
2.1332467 2.0040228 -0.42093289
2.0755551 1.9497579 -0.42262986
2.0150266 1.8928978 -0.42322046
1.9573509 1.8387177 -0.42367017
1.9025778 1.7872019 -0.42385441
1.8590239 1.7462893 -0.42611837
1.804301 1.6948255 -0.42520034
1.7524185 1.6460911 -0.42412016
1.7005876 1.5973492 -0.42256728
1.6627723 1.5618294 -0.42394206
1.6278288 1.5289539 -0.42543089
1.5928614 1.4961104 -0.42664567
1.5579207 1.4632919 -0.42743129
1.5174758 1.4252539 -0.42607909
1.4798124 1.3898795 -0.42517501
1.4505637 1.3623606 -0.42626247
8.8493471 8.3895016 -0.35533404
7.9387517 7.5259609 -0.36878264
7.1527853 6.7808623 -0.37667841
7.0439525 6.6774554 -0.41534916
6.7026949 6.3539534 -0.43750012
5.9765372 5.6653795 -0.42724195
5.4599185 5.1756577 -0.42477632
4.9943857 4.7343621 -0.42010158
4.6111417 4.3709183 -0.4165622
4.3184242 4.0934501 -0.41742355
4.0682769 3.8561997 -0.4189769
3.8209901 3.621804 -0.41733989
3.6190429 3.430264 -0.41820478
3.4453511 3.2656326 -0.41997856
3.2576327 3.0877063 -0.4174591
3.089787 2.9285133 -0.415566
2.9501758 2.7961891 -0.41554135
2.8276138 2.6799307 -0.41599298
2.713495 2.5717723 -0.41648465
2.6107428 2.4743001 -0.41734982
2.510834 2.3796129 -0.41716224
2.4250271 2.2982903 -0.41839805
2.3393047 2.2169704 -0.41856283
2.2620442 2.1437504 -0.41900706
2.1876535 2.0731773 -0.41924551
2.1273048 2.0159867 -0.42133549
2.0698488 1.9614687 -0.42305398
2.0123696 1.9069992 -0.42425749
1.9549268 1.8525642 -0.4247466
1.903174 1.8034582 -0.42559537
1.8541994 1.7570496 -0.42662829
1.7969049 1.7026975 -0.42507073
1.7480279 1.656383 -0.42467266
1.6964079 1.6074131 -0.42314109
1.6615335 1.5743682 -0.42524964
1.6267292 1.5413359 -0.42677552
1.5919006 1.5083356 -0.42802787
1.5570984 1.4753603 -0.42885098
1.5140368 1.434509 -0.42675313
1.4765254 1.398968 -0.42586923
1.4446217 1.3686922 -0.42615828
8.7985477 8.4145403 -0.35476515
7.8945518 7.5497355 -0.36825618
7.1203089 6.80931 -0.37652922
7.0091085 6.7027321 -0.41501516
6.6777267 6.3858356 -0.43768495
5.9404831 5.6806192 -0.4264324
5.4344649 5.1967363 -0.42455611
4.973681 4.7561092 -0.42010158
4.6032948 4.401772 -0.41758445
4.2977057 4.1095605 -0.4171502
4.0542278 3.8766062 -0.41926807
3.8051507 3.6384416 -0.41733989
3.6124814 3.4540927 -0.41918418
3.4170074 3.2671893 -0.41825736
3.2441292 3.1018908 -0.4174591
3.0825996 2.9473407 -0.41632503
2.937947 2.8090351 -0.41554135
2.8102787 2.6868746 -0.41516346
2.6966357 2.578222 -0.41561967
2.5999217 2.4856682 -0.41734982
2.5060334 2.3959057 -0.41809759
2.420579 2.3142066 -0.4193688
2.3352091 2.2325103 -0.41956899
2.2554672 2.1562753 -0.41952756
2.1813834 2.0853765 -0.41978371
2.1184881 2.0252495 -0.42133549
2.0612705 1.9704814 -0.42305398
2.0068207 1.9184299 -0.42484838
1.9524033 1.8664092 -0.42596364
1.9008613 1.8170738 -0.42684713
1.8465153 1.7651234 -0.42662829
1.7894584 1.7105217 -0.42507073
1.7380033 1.6613363 -0.42399427
1.6893781 1.6147997 -0.42314109
1.6518719 1.5789493 -0.42453614
1.6199884 1.5484191 -0.42677552
1.5825326 1.5126181 -0.42727956
1.5451081 1.4768469 -0.42731935
1.5022302 1.4358131 -0.42518708
1.4676434 1.4027555 -0.42506871
1.4386359 1.3749825 -0.42615828
8.7449017 8.4365978 -0.35344625
7.8812165 7.6030974 -0.36860409
7.0175037 6.7698636 -0.37214002
6.971385 6.7251377 -0.41400695
6.6498165 6.4149275 -0.43720114
5.9128485 5.7037921 -0.42579985
5.4173679 5.2258301 -0.42460242
4.9528971 4.777781 -0.41974127
4.5924768 4.4299493 -0.41801703
4.2825537 4.1309943 -0.41711199
4.0428977 3.8996832 -0.41955626
3.7920573 3.6577287 -0.4173727
3.6057966 3.4779446 -0.41990128
3.402735 3.282083 -0.41800979
3.2361784 3.1214321 -0.41794717
3.0725241 2.9634769 -0.41648102
2.931272 2.8272381 -0.41612265
2.8013396 2.7018228 -0.41537443
2.6909647 2.5953689 -0.41628888
2.589067 2.4970038 -0.41716149
2.4955714 2.4068327 -0.41791603
2.4076843 2.3220708 -0.41870829
2.3254616 2.2426934 -0.41939983
2.2516265 2.1714861 -0.42040479
2.1778493 2.1002614 -0.42070165
2.1124301 2.0371733 -0.4217377
2.052669 1.9794719 -0.42290467
1.9984469 1.9271834 -0.424703
1.944257 1.8749259 -0.4258222
1.8929307 1.825366 -0.42670944
1.8415854 1.7758534 -0.42713782
1.7847652 1.7210011 -0.42560199
1.7335229 1.6715896 -0.42454657
1.6850991 1.6248391 -0.42371446
1.6505121 1.591489 -0.42584309
1.6132329 1.5554885 -0.42665818
1.5759336 1.5195243 -0.42716494
1.5359081 1.4809314 -0.42644185
1.4959669 1.4423696 -0.42507827
1.4587723 1.4065076 -0.42416212
1.4216397 1.3706574 -0.42278302
8.7164011 8.4828444 -0.35378698
7.8731475 7.6619182 -0.36978677
6.9739108 6.7868071 -0.37139514
6.92799 6.7418828 -0.41317293
6.6133738 6.4357181 -0.43664727
5.8907008 5.7322583 -0.42600203
5.3973098 5.2521377 -0.42482242
4.926414 4.7939081 -0.41926563
4.5703101 4.447227 -0.41776165
4.2672806 4.1523585 -0.41738516
4.0286355 3.9200029 -0.41984722
3.7816432 3.679671 -0.41798964
3.5877972 3.4909301 -0.41957501
3.3883817 3.2968988 -0.41800979
3.2197402 3.1328104 -0.41758564
3.0623507 2.9795663 -0.41686031
2.9244785 2.8454211 -0.41691679
2.7923081 2.7167287 -0.41578898
2.6796148 2.6070857 -0.41628888
2.5781472 2.5082769 -0.41716149
2.4878254 2.420403 -0.41838351
2.4030857 2.3379598 -0.41967863
2.321207 2.2582214 -0.4204056
2.24213 2.1812901 -0.42040479
2.1658912 2.1070464 -0.42016366
2.1007497 2.0436747 -0.42118204
2.0440125 1.9884095 -0.42290467
1.9872513 1.9331924 -0.42411232
1.9332918 1.8807008 -0.4252139
1.8794204 1.828231 -0.42545807
1.8338193 1.7838719 -0.42713782
1.7799987 1.7314568 -0.42626286
1.7317278 1.6845022 -0.42590293
1.6835041 1.6375364 -0.42510599
1.6463053 1.6013533 -0.42655641
1.6091812 1.5651882 -0.42738876
1.5665401 1.523713 -0.42641684
1.5294317 1.4876189 -0.42644185
1.495146 1.4542198 -0.42664394
1.4608438 1.4208566 -0.42656302
1.4156455 1.3768474 -0.42278302
8.6737461 8.5153379 -0.35292336
7.8563709 7.7126217 -0.36999878
6.9303179 6.8035131 -0.37014174
6.9180179 6.7912006 -0.41383296
6.5462637 6.4262614 -0.43358216
5.8879199 5.7797842 -0.4271875
5.3743572 5.2756534 -0.42442808
4.9026833 4.8126421 -0.41866812
4.5508776 4.4671416 -0.41742778
4.263042 4.1846023 -0.41843817
4.0059485 3.932102 -0.41897139
3.7655671 3.6961517 -0.41771337
3.5642126 3.4983869 -0.41833472
3.3823106 3.3198442 -0.41879377
3.2060556 3.1468446 -0.41735041
3.0521111 2.9956386 -0.4170157
2.914824 2.8608918 -0.41709998
2.780443 2.7289019 -0.41558498
2.671 2.6214876 -0.41652521
2.5699632 2.5222356 -0.41742295
2.4744885 2.428534 -0.4177345
2.390111 2.3457234 -0.41901812
2.3113472 2.2683434 -0.42023602
2.2353699 2.1937795 -0.42076111
2.1594541 2.1192021 -0.42054322
2.094588 2.0555453 -0.42158404
2.0325749 1.9946184 -0.42218253
1.9733012 1.9364514 -0.42278618
1.9168211 1.8810261 -0.42324832
1.8686892 1.833729 -0.42469531
1.8260342 1.7918721 -0.42700389
1.7751907 1.741919 -0.42679352
1.7243773 1.6920578 -0.42577645
1.6791024 1.6475742 -0.42567855
1.6420597 1.6112269 -0.42714924
1.6050915 1.5748979 -0.42800158
1.5626295 1.5332346 -0.42705032
1.5229421 1.4942938 -0.42633012
1.4888024 1.4607455 -0.42653471
1.4546462 1.4272329 -0.42645633
1.41782 1.391052 -0.4251323
8.6642513 8.5805788 -0.35405707
7.8420615 7.7660575 -0.37091723
6.8783779 6.8117142 -0.36895159
6.8800006 6.8130832 -0.41333315
6.515389 6.4520178 -0.43339774
5.809978 5.7532673 -0.42334986
5.3485155 5.296309 -0.42420828
4.884408 4.8367314 -0.41890571
4.531343 4.4869561 -0.41742778
4.2475114 4.205905 -0.41871113
3.9942894 3.9550252 -0.41955289
3.7577052 3.7207665 -0.4186382
3.5433819 3.5084276 -0.41768262
3.3650279 3.3318331 -0.41844994
3.1895306 3.158067 -0.41698909
3.0362484 3.006192 -0.41663662
2.8940289 2.8653803 -0.41590941
2.77403 2.7464733 -0.41641366
2.6622951 2.6358485 -0.41695729
2.5589335 2.5334251 -0.41742295
2.4638686 2.4393079 -0.4177345
2.3770986 2.3534029 -0.41853315
2.2986751 2.2756815 -0.41973335
2.2230253 2.2007885 -0.420241
2.1529362 2.1313262 -0.42108101
2.0855992 2.0646651 -0.42158404
2.0238523 2.003468 -0.42218253
1.964833 1.9450432 -0.42278618
1.9113376 1.8920865 -0.42385644
1.8634106 1.8445778 -0.4253208
1.8181983 1.7998226 -0.42700389
1.7675734 1.7496481 -0.42679352
1.7142438 1.6968595 -0.42509845
1.6718976 1.6548849 -0.42567855
1.6350138 1.6183764 -0.42714924
1.5982044 1.5818864 -0.42800158
1.5531996 1.5373411 -0.4263024
1.5164075 1.5009247 -0.42633012
1.4824146 1.4672276 -0.42653471
1.4538398 1.4389455 -0.42805654
1.4171666 1.4025991 -0.42676744
8.6377916 8.6293535 -0.35387126
7.7887812 7.7809005 -0.36942235
6.8347969 6.8278813 -0.36770189
6.8391786 6.8320203 -0.41216061
6.4761491 6.4693708 -0.43218073
5.8069148 5.8006344 -0.42453596
5.3226118 5.3168554 -0.42359456
4.8605142 4.8552575 -0.41830841
4.5200105 4.5149646 -0.41785872
4.2346487 4.2299213 -0.41894364
3.9714978 3.9669256 -0.41867748
3.7414501 3.7371426 -0.41836131
3.522547 3.5183687 -0.4167698
3.3504736 3.3464994 -0.41820198
3.1812401 3.1774666 -0.41747633
3.023118 3.0194268 -0.41641289
2.8787649 2.8752499 -0.4152995
2.7620354 2.7585666 -0.41620928
2.6507843 2.6474552 -0.41676113
2.5478704 2.5445819 -0.41723442
2.4504731 2.4473102 -0.41708592
2.3640804 2.3610289 -0.41787323
2.2859981 2.2829678 -0.41906151
2.2161562 2.2132187 -0.42059711
2.1463695 2.1434495 -0.42145997
2.0793221 2.0764933 -0.4219856
2.0151069 2.0122955 -0.42203343
1.9590755 1.956342 -0.42323169
1.9058096 1.9031506 -0.42432353
1.8580886 1.8554312 -0.42580879
1.8103437 1.8077546 -0.42686993
1.7544893 1.751919 -0.42534235
1.7013948 1.6989022 -0.42361659
1.6592366 1.6567479 -0.42416468
1.622517 1.6200835 -0.425603
1.5858717 1.5834379 -0.42642349
1.5437796 1.5414103 -0.42544028
1.5071492 1.5048362 -0.42545322
1.4705977 1.4682896 -0.42486066
1.4394461 1.4371868 -0.42554972
1.4056426 1.4033874 -0.42502829
8.5808048 8.6475592 -0.35307911
7.7575064 7.8175826 -0.36955333
6.8021903 6.8548679 -0.36755332
6.7708173 6.8230138 -0.40983108
6.4423623 6.4920273 -0.43181229
5.7980371 5.8425307 -0.42574662
5.313098 5.3538704 -0.42469254
4.8365364 4.873652 -0.418071
4.5057588 4.5401773 -0.41836861
4.2161522 4.2483582 -0.41894364
3.9596393 3.9897466 -0.41925859
3.7305942 3.75896 -0.41897747
3.5099037 3.536468 -0.41709566
3.3358397 3.3610868 -0.41820198
3.1673455 3.1913171 -0.41747633
3.0099146 3.032589 -0.41641289
2.8716669 2.8932998 -0.41609284
2.755445 2.7761056 -0.41703755
2.6419423 2.6617517 -0.417193
2.5367434 2.5556748 -0.41723442
2.4425035 2.4607315 -0.41755298
2.3564866 2.3740728 -0.418358
2.2787442 2.29567 -0.41956398
2.2037508 2.2201197 -0.4200772
2.1342707 2.1500485 -0.4209224
2.067518 2.0828021 -0.42143038
2.0063076 2.0210688 -0.42203343
1.9505206 1.9648714 -0.42323169
1.8974875 1.9114481 -0.42432353
1.8472584 1.8607845 -0.4251835
1.7997241 1.8129021 -0.42622703
1.7468284 1.7595577 -0.42534235
1.6993865 1.7117701 -0.42497218
1.6519918 1.6639719 -0.42416468
1.6181386 1.6298732 -0.4263159
1.5762439 1.5876193 -0.4256933
1.5370393 1.5481317 -0.42544028
1.5005687 1.511398 -0.42545322
1.4668736 1.4774081 -0.42564309
1.4331615 1.4434539 -0.42554972
1.3995059 1.4095073 -0.42502829
8.5676479 8.7099829 -0.3534579
7.7479758 7.8764191 -0.37015384
6.7667542 6.878931 -0.36675096
6.7327862 6.844161 -0.40882918
6.4495625 6.5562525 -0.43372563
5.7725043 5.8677893 -0.42531562
5.2842321 5.3714576 -0.42385882
4.8043032 4.8836064 -0.41676268
4.4886546 4.5625882 -0.41828844
4.2030559 4.2722855 -0.41917533
3.9422085 4.0070014 -0.41896427
3.7169037 3.7779934 -0.41900805
3.491725 3.54899 -0.41650912
3.3238869 3.3783994 -0.41829747
3.1534059 3.2051225 -0.41724092
3.0021224 3.0512514 -0.41694656
2.8590305 2.9058177 -0.4158794
2.7460454 2.7908862 -0.4172467
2.6303184 2.6732695 -0.41699666
2.5174186 2.5584369 -0.41569766
2.4317586 2.4713812 -0.41737142
2.3488393 2.3871107 -0.41866741
2.2768722 2.3138902 -0.42090142
2.1967735 2.2324893 -0.4204331
2.1275983 2.1621139 -0.42130113
2.0557137 2.0890632 -0.42072165
1.9974854 2.0298195 -0.4218843
1.9419444 1.9733793 -0.42308673
1.8918513 1.9224753 -0.42479023
1.8391373 1.8688428 -0.42504624
1.7918124 1.8207536 -0.42609328
1.7391499 1.7671788 -0.42521253
1.6946154 1.7219265 -0.42552346
1.6447313 1.6711801 -0.42404193
1.6083331 1.6341966 -0.42548293
1.5693172 1.5944977 -0.42557618
1.5329747 1.557572 -0.42607355
1.4939754 1.517947 -0.4253417
1.460429 1.4838103 -0.42553407
1.4241831 1.4469843 -0.42464352
1.3906785 1.4128939 -0.42410713
9.9700251 10.247032 1.6731591
6.2894936 6.4637899 0.84841615
6.3246903 6.4999619 0.81138802
8.594985 8.8143768 -0.35616899
7.7135348 7.9101505 -0.37015384
6.7284994 6.9000072 -0.36630586
6.7055836 6.876267 -0.40899539
6.4154463 6.5787444 -0.43335757
5.7495704 5.8957138 -0.4255172
5.2580218 5.3916707 -0.42363945
4.7911153 4.9128966 -0.41747427
4.4659824 4.5793395 -0.41803369
4.1843748 4.2905841 -0.41917533
3.9328465 4.0325308 -0.4198353
3.7085402 3.8025389 -0.41993165
3.4762063 3.5641916 -0.41650912
3.3118312 3.3956561 -0.41864091
3.1366754 3.2160668 -0.41687998
2.9887803 3.0643215 -0.41694656
2.8571777 2.9293926 -0.41746521
2.7365539 2.8056221 -0.41766062
2.618629 2.684721 -0.41699666
2.5062315 2.569397 -0.41569766
2.42366 2.4847443 -0.41783828
2.3438141 2.4028859 -0.41963655
2.2694592 2.326576 -0.42140371
2.1897151 2.2448249 -0.4209528
2.118144 2.1713767 -0.42130113
2.0465789 2.0980132 -0.42072165
1.991308 2.0412817 -0.42245674
1.9387082 1.9873619 -0.4242669
1.8888339 1.936236 -0.42600563
1.8309655 1.8768498 -0.42504624
1.7838509 1.8285544 -0.42609328
1.7314227 1.7747504 -0.42521253
1.687086 1.7293042 -0.42552346
1.6401081 1.681092 -0.42473707
1.6038693 1.6439477 -0.42619562
1.5650249 1.6040766 -0.42630616
1.5315189 1.5697346 -0.42756855
1.4926881 1.5299348 -0.42687169
1.4592861 1.4956471 -0.42709854
1.4258665 1.4613948 -0.4270426
1.3951709 1.4298844 -0.42737579
9.9730625 10.341487 2.2810631
6.3689761 6.6031051 0.9058122
6.2881989 6.5191307 0.85254896
6.288136 6.5190654 0.81081802
6.2826123 6.5131111 0.76906163
6.2687664 6.4987574 0.72583938
6.2575951 6.4869494 0.68311065
6.2650762 6.4947047 0.64310271
6.2616382 6.4911408 0.60135609
6.2608862 6.4901347 0.55991024
6.240912 6.469429 0.51753139
6.2263513 6.4541097 0.47522533
6.2115397 6.4387565 0.43312317
6.204814 6.43156 0.39234835
9.9416771 10.284844 -0.34769428
8.5103226 8.8040829 -0.35360748
7.6871004 7.952167 -0.36996713
6.6929159 6.9237008 -0.36550492
6.664681 6.8942518 -0.40782854
6.3460159 6.56461 -0.43011928
5.7129607 5.9095416 -0.42428052
5.2209077 5.4005575 -0.42214918
4.7669387 4.9309673 -0.41687796
4.4459743 4.5987983 -0.41769877
4.1683373 4.3116183 -0.41913387
3.9152291 4.0496683 -0.41954035
3.6892219 3.8159003 -0.41934586
3.4633424 3.5821397 -0.41657388
3.2969985 3.41009 -0.41839254
3.1199243 3.2269418 -0.41628402
2.9699917 3.071759 -0.41596544
2.847085 2.9446409 -0.41764718
2.7216012 2.8147593 -0.41704169
2.6015077 2.6905549 -0.41593733
2.497709 2.5831132 -0.41595891
2.4101145 2.4925237 -0.4171899
2.3306282 2.4103193 -0.41897643
2.2593014 2.336472 -0.42123353
2.1852973 2.2599399 -0.42182758
2.1113546 2.1833954 -0.4216795
2.0401084 2.1097183 -0.42112303
1.9850838 2.0527446 -0.42287967
1.932718 1.9985939 -0.42471141
1.880383 1.9444752 -0.42586401
1.8227743 1.884837 -0.42490894
1.7731923 1.8335668 -0.42531705
1.7263544 1.7850718 -0.42574278
1.6795399 1.736665 -0.42539695
1.6354451 1.6910114 -0.42530903
1.5966966 1.6509464 -0.42607537
1.5580264 1.610906 -0.4261888
1.5193397 1.5709063 -0.42595914
1.4833508 1.5336958 -0.42599496
1.450101 1.4992653 -0.4262071
1.4168336 1.4648701 -0.4261362
1.3836228 1.4304831 -0.42563727
9.8130627 10.26663 3.0567667
6.1886878 6.4726982 1.0076673
6.1919169 6.4758496 0.96675092
6.2405539 6.5267167 0.9326365
6.2595096 6.5465417 0.8942976
6.262382 6.5493169 0.85291499
6.2650089 6.5520644 0.81151462
6.2622037 6.5489016 0.77005398
6.2564964 6.542933 0.7277174
6.2615347 6.5479732 0.68665314
6.298614 6.5867486 0.64948928
6.2494178 6.5353022 0.60291535
6.2325082 6.5173912 0.55991024
6.2853971 6.5726972 0.52359354
6.2008266 6.484035 0.47543204
6.1914763 6.4742575 0.43368986
6.1874809 6.4698534 0.39303365
6.1913552 6.4739046 0.35229036
9.9679422 10.402467 -0.28533697
9.9075136 10.339403 -0.34807396
8.4583197 8.8270359 -0.35304371
7.638824 7.9715385 -0.36931416
6.6545396 6.9443831 -0.36506045
6.6264353 6.914813 -0.40733057
6.311913 6.5866027 -0.42975163
5.6871209 5.934413 -0.42428052
5.1865001 5.4120235 -0.42127246
4.7534709 4.9601655 -0.41758895
4.4339571 4.6265965 -0.4184624
4.1494851 4.3297648 -0.41913387
3.9002173 4.0695252 -0.4198305
3.6671479 3.8263385 -0.41873053
3.4530666 3.6028378 -0.41722479
3.2874727 3.4300618 -0.41907901
3.1085057 3.2433324 -0.41664475
2.9619408 3.0903025 -0.41672245
2.8395875 2.9626467 -0.41843969
2.7146692 2.8322158 -0.41786915
2.5843704 2.696275 -0.41507441
2.4917846 2.5995893 -0.41685733
2.4045835 2.5086155 -0.41812319
2.3281355 2.4288602 -0.42042953
2.2517657 2.3491044 -0.42173558
2.1754155 2.2694535 -0.42182758
2.104485 2.1953802 -0.42221665
2.0362351 2.1241825 -0.42223272
1.9841303 2.0697548 -0.42459637
1.9293236 2.012583 -0.42589116
1.8745511 1.9554468 -0.42647153
1.8145328 1.8927723 -0.42490894
1.765175 1.8412863 -0.42531705
1.7185491 1.7925874 -0.42574278
1.6719463 1.7439768 -0.42539695
1.6280512 1.6981312 -0.42530903
1.5921358 1.6606699 -0.42678788
1.5536385 1.6204588 -0.4269186
1.5124708 1.5775206 -0.42595914
1.4713424 1.5346234 -0.42446536
1.438248 1.5000532 -0.42464301
1.4077823 1.4682783 -0.42533669
1.3773679 1.4365067 -0.42563727
9.7680626 10.309234 3.0575104
9.8284988 10.372657 2.8062432
9.8268394 10.370543 2.7380006
9.8247747 10.368363 2.6698413
9.822547 10.365649 2.6027398
9.8200397 10.363005 2.5347509
9.9857874 10.536443 1.9013972
6.2377887 6.5813046 1.0208089
6.241046 6.5845113 0.9793784
6.2173285 6.5594888 0.93391234
6.1907406 6.5314374 0.88901156
6.196259 6.5370307 0.84826183
6.1961832 6.5369511 0.80676186
6.2388968 6.5817833 0.7711904
6.2332191 6.5757937 0.72881776
6.3186283 6.6656642 0.69658071
6.295908 6.6412315 0.48541984
6.1792583 6.5181837 0.43529347
6.1752872 6.5137672 0.39453161
6.2248006 6.5659943 0.35629466
9.9667034 10.492807 -0.15361466
9.9472876 10.472365 -0.21930295
9.9278479 10.451535 -0.2847369
9.8381119 10.357066 -0.34647173
8.4466276 8.8921814 -0.3535291
7.5717163 7.9708405 -0.36717141
6.6188121 6.9677062 -0.36426094
6.5854635 6.9323573 -0.40616599
6.3100028 6.6423864 -0.43111005
5.6558146 5.9535308 -0.42344785
5.1521068 5.4233079 -0.42000404
4.7291126 4.9780478 -0.41699246
4.4191122 4.651567 -0.41863552
4.1305685 4.3478451 -0.41881987
3.8797557 4.0836964 -0.41924542
3.6504326 3.8423188 -0.41845304
3.4426908 3.6235304 -0.41761398
3.2724903 3.4443893 -0.41883022
3.0996978 3.2625203 -0.41713059
2.9484437 3.1032126 -0.4164983
2.823972 2.9722071 -0.41782877
2.7023005 2.8440497 -0.41766372
2.5886412 2.7244284 -0.41746643
2.4857788 2.6160789 -0.41756678
2.3989727 2.5247223 -0.41887414
2.3175306 2.4390113 -0.42025337
2.2415097 2.3589232 -0.4215652
2.1655078 2.27894 -0.42166299
2.0975664 2.2073627 -0.4225944
2.0296261 2.1358659 -0.42263329
1.9724338 2.0756075 -0.4238742
1.9152189 2.0153999 -0.42456582
1.8633583 1.9608265 -0.42572239
1.8089284 1.9034829 -0.42539629
1.7597938 1.8517799 -0.42582577
1.7107265 1.8000851 -0.42561275
1.6616859 1.7484829 -0.42459327
1.6179934 1.7024486 -0.42449111
1.582244 1.6648333 -0.42595512
1.5439248 1.6244571 -0.42607147
1.5055885 1.5841212 -0.4258447
1.4646478 1.5410448 -0.42435405
1.4290679 1.5035565 -0.42375237
1.3961093 1.4688801 -0.42363158
1.3684705 1.4397503 -0.42471629
9.799098 10.430601 2.073391
9.9575214 10.598864 1.972412
9.9635868 10.605319 1.9059631
6.1771173 6.5745115 1.015565
6.1803441 6.5777159 0.97434735
6.1806664 6.5780592 0.93270779
6.1408882 6.5357232 0.88593936
6.1836553 6.5810099 0.8504594
6.1436238 6.5384064 0.8036254
6.1568131 6.5522141 0.76457071
6.1991348 6.5972538 0.72819138
6.2121325 6.6108546 0.68801373
6.2221942 6.621562 0.64802128
6.2188182 6.6179695 0.60598963
6.2020755 6.5999212 0.56280518
6.1636882 6.5590715 0.51867622
6.2615275 6.6629539 0.485006
6.2041969 6.6019483 0.43907535
6.18155 6.5776191 0.39676157
6.2041106 6.6016254 0.35675579
6.143672 6.5373139 0.3122451
6.1687512 6.5637708 0.27293965
9.9402609 10.576792 0.3734588
6.162292 6.5566688 0.19039086
9.9470158 10.564011 -0.22031111
9.9196329 10.53456 -0.28581691
9.830307 10.439696 -0.34779775
8.434516 8.9573793 -0.35465464
7.5127769 7.9782219 -0.36599794
6.5803189 6.9879947 -0.3638171
6.5364237 6.9411373 -0.40500551
6.2863102 6.6755371 -0.43147728
5.6297836 5.9781523 -0.42344785
5.1176987 5.4343796 -0.41912812
4.7126932 5.004312 -0.41746604
4.3987737 4.6708045 -0.41863552
4.106215 4.3601532 -0.41827559
3.8672419 4.1062574 -0.41982529
3.6309628 3.8553753 -0.41814557
3.4215097 3.6328499 -0.41696349
3.2574301 3.4586353 -0.41883022
3.0854328 3.2760141 -0.41713059
2.9455378 3.1273689 -0.41801149
2.8109763 2.9845006 -0.41782877
2.6898654 2.8558137 -0.41766372
2.5820529 2.7413497 -0.41832897
2.4823222 2.6353741 -0.41891375
2.3932519 2.540812 -0.41980705
2.3068664 2.4491003 -0.42025337
2.2311957 2.3686812 -0.4215652
2.1581979 2.2911854 -0.42218229
2.0879149 2.2164941 -0.4225944
2.0202873 2.1447015 -0.42263329
1.9633585 2.0841942 -0.4238742
1.9064069 2.0237374 -0.42456582
1.8547848 1.9689382 -0.42572239
1.8032497 1.9141644 -0.42602098
1.7569813 1.8650501 -0.42711031
1.7028559 1.8075324 -0.42561275
1.6540411 1.7557168 -0.42459327
1.6105497 1.7094922 -0.42449111
1.5802323 1.6773123 -0.42737973
1.5420852 1.6367644 -0.42753062
1.50655 1.5990474 -0.42808598
1.4605366 1.550209 -0.42511865
1.4251182 1.5125632 -0.4245342
1.392309 1.4777408 -0.42443088
1.3621755 1.4457077 -0.42471629
9.568325 10.276583 3.023716
9.9409065 10.674129 1.9112926
6.1266479 6.5780773 1.0534364
6.1351075 6.5871601 1.0138514
6.146256 6.5988989 0.97398102
6.1465759 6.5992427 0.93237698
6.144074 6.5965567 0.89101964
6.1362963 6.5879755 0.84836692
6.1335702 6.5850487 0.80653608
6.1387496 6.5903783 0.76636624
6.146379 6.5985694 0.72584474
6.1566548 6.6093698 0.68553257
6.1560392 6.6087089 0.64460385
6.1473556 6.5993867 0.60230058
6.1386523 6.5898128 0.56012714
6.1722054 6.6258321 0.52229655
6.1552711 6.6074219 0.47947833
6.1194668 6.5689878 0.43557444
6.1128755 6.5616822 0.39465812
6.1087193 6.5572209 0.35338232
6.1390271 6.5897541 0.31393954
6.1427045 6.5934706 0.27352983
6.1514778 6.6028876 0.23266603
6.1282935 6.5777721 0.19069631
6.1368036 6.5869064 0.15043747
6.1479735 6.5986648 0.10950296
6.2015052 6.6561203 0.068896733
6.1754766 6.6165972 0.027816771
6.1729488 6.6136575 -0.01351999
6.1781731 6.6192546 -0.054891825
6.1940489 6.6360316 -0.09588109
6.2283316 6.672761 -0.13811347
6.1693239 6.6093116 -0.17811395
9.7900038 10.488213 -0.34723595
6.1546469 6.5935874 -0.25952527
7.4539309 7.9852552 -0.36425248
6.5417876 7.0080938 -0.36287126
6.4874477 6.9496369 -0.40334725
6.2624636 6.7086239 -0.43136397
5.5983367 5.9969726 -0.42261595
5.0939531 5.4566736 -0.41873726
4.6961493 5.0305438 -0.41757929
4.3757067 4.68712 -0.41804543
4.0791883 4.3694987 -0.41714621
3.849303 4.1231084 -0.41952994
3.6114635 3.8683512 -0.41756102
3.4056408 3.6477604 -0.41670218
3.2370119 3.4671431 -0.41789582
3.0684698 3.2866185 -0.41653463
2.9212661 3.1288402 -0.41627419
2.8005943 2.999594 -0.41800994
2.6773939 2.8675392 -0.41745833
2.5674324 2.7497683 -0.41770074
2.4708145 2.6461961 -0.41872421
2.3821578 2.5512464 -0.4196243
2.2935278 2.4563255 -0.41959324
2.2182105 2.3755786 -0.42089316
2.1455531 2.2977667 -0.42149839
2.0755982 2.2227714 -0.42189819
2.0135641 2.1563387 -0.42303345
1.9568983 2.0955815 -0.42429611
1.9002092 2.0348749 -0.42500973
1.8435577 1.9742085 -0.42497364
1.7948956 1.9220307 -0.42588326
1.748842 1.8727149 -0.42697614
1.697596 1.8177755 -0.42614239
1.6463797 1.7629334 -0.42446697
1.6057142 1.7193289 -0.42506269
1.5729139 1.6842077 -0.42725906
1.5428022 1.6519076 -0.42960098
1.5048078 1.6112264 -0.42946473
1.4590032 1.5621825 -0.42653593
1.4211324 1.5215803 -0.42520702
1.3884729 1.4866123 -0.42512369
1.3610845 1.457237 -0.42624542
9.5893774 10.39009 3.1801534
9.5991297 10.400656 3.1155357
9.5233936 10.318234 3.023716
9.9265814 10.755073 3.0828853
9.6402054 10.444796 2.9262042
9.5228014 10.317232 2.7580497
6.1399961 6.6503558 1.0607109
6.1273727 6.636683 1.017349
6.1174045 6.6256542 0.97398102
6.1098151 6.6174345 0.93117183
6.0994105 6.6061654 0.88871425
6.089025 6.594686 0.84580171
6.0863037 6.5917392 0.80409521
6.0888119 6.5942245 0.76371676
6.1016808 6.608161 0.72396433
6.1039758 6.6104155 0.68287206
6.1033549 6.6097431 0.64210105
6.0947046 6.6003752 0.599958
6.0886807 6.5936203 0.55818731
6.082386 6.5868039 0.5171231
6.0761008 6.5797672 0.47554308
6.0748644 6.5784278 0.43443865
6.0709486 6.5739574 0.39379939
6.0721054 6.5752101 0.35292059
6.1049185 6.6107421 0.31366739
6.0767908 6.5800533 0.27187061
6.0828686 6.5866346 0.23115587
6.0942349 6.598711 0.19053063
6.1053548 6.6107512 0.15037221
6.1164727 6.6225581 0.10945553
6.1273494 6.6343341 0.068393841
6.1385889 6.6348777 0.027780753
6.1466856 6.6433964 -0.013525828
6.1465793 6.6432819 -0.054868143
6.1570764 6.6543941 -0.095757321
6.1540627 6.6511369 -0.13710879
6.1430793 6.6390338 -0.1781909
6.1371684 6.6326456 -0.21870005
6.1311221 6.626111 -0.25974995
6.1250648 6.6193333 -0.30072311
6.5031939 7.0279756 -0.36242801
6.1363301 6.6312752 -0.38331234
5.9946194 6.4781342 -0.41485769
5.5747662 6.0242062 -0.4228169
5.0700955 5.4788485 -0.41873726
4.6820993 5.0595717 -0.41828904
4.3605089 4.7118897 -0.41855371
4.0627308 4.3901162 -0.41741812
3.8312762 4.1398649 -0.41952994
3.5919054 3.8812144 -0.41725376
3.3949802 3.6682994 -0.41735226
3.2165668 3.4755225 -0.41721019
3.0514581 3.2971213 -0.41617429
2.9102268 3.1444101 -0.41665226
2.7927589 3.0174894 -0.41880164
2.6727719 2.8877461 -0.41869828
2.5554099 2.7609446 -0.41770074
2.4618807 2.6597996 -0.419173
2.3736377 2.5644624 -0.42009056
2.2880545 2.4719987 -0.42056116
2.2130868 2.3909206 -0.42189649
2.1381366 2.309948 -0.42201748
2.0685081 2.2346461 -0.42243496
2.0067627 2.1679416 -0.42358789
1.952986 2.1097715 -0.42543977
1.8991818 2.0516481 -0.42677814
1.84279 1.990729 -0.42679495
1.7917311 1.9355035 -0.42713219
1.7432716 1.8831553 -0.42761824
1.6948794 1.8308159 -0.42746171
1.6465124 1.7785697 -0.42649791
1.6060312 1.734781 -0.42714632
1.5707687 1.6966916 -0.42868325
1.5355797 1.6586236 -0.42960098
1.4951584 1.6149634 -0.42871785
1.4521731 1.5685338 -0.42653593
1.4170799 1.530575 -0.42598864
1.3845708 1.4954623 -0.42592278
1.3547131 1.4631619 -0.42624542
9.4782104 10.359612 3.0242062
9.9775324 10.905368 3.1139967
9.7793636 10.688396 2.9141266
9.7803535 10.689478 2.8466506
9.7814465 10.690298 2.7782323
9.782136 10.691051 2.7098615
9.9646711 10.890165 2.6220784
6.0977125 6.6631188 1.1838347
6.0943537 6.6592155 1.0999981
6.1213727 6.6885042 1.0628459
6.1088152 6.6747832 1.0194136
6.0989017 6.6637177 0.9759742
6.0887313 6.6526055 0.93269181
6.0783806 6.6412964 0.89018124
6.0627985 6.6240387 0.84648162
6.0574651 6.6182117 0.80440837
6.0573354 6.6178379 0.7636987
6.0675139 6.6289587 0.72365123
6.0645385 6.6254759 0.68200308
6.0612879 6.6219244 0.64102399
6.0579381 6.6182652 0.59949034
6.0519423 6.6114826 0.55777276
6.0483093 6.6075139 0.51698589
6.0446882 6.6033268 0.47564846
6.048727 6.6077385 0.43494067
6.0474672 6.6061311 0.39445552
6.0538921 6.6131492 0.3538492
6.0522842 6.611393 0.31275553
6.0954719 6.6583366 0.27431896
6.0672498 6.6275086 0.2319729
6.0759287 6.6367569 0.19117607
6.0896349 6.6517282 0.15101333
6.1007037 6.6635847 0.11000802
6.1115303 6.6754103 0.06885767
6.1148605 6.667356 0.028120559
6.122921 6.6759109 -0.013221299
6.1228161 6.675797 -0.054599307
6.1332655 6.6869555 -0.095523104
6.1329064 6.6865644 -0.13696937
6.1404562 6.694561 -0.1786432
6.1345711 6.6881452 -0.21932837
6.1285515 6.681582 -0.26055697
6.1093264 6.6603889 -0.30105853
6.0872402 6.6363101 -0.34054232
6.0466685 6.5918479 -0.37919182
5.9900446 6.5301185 -0.416199
5.5484376 6.0484838 -0.42253041
5.0540605 5.5095515 -0.41913262
4.6758027 5.0972037 -0.41946712
4.3425527 4.7337542 -0.4185836
4.0488153 4.4135551 -0.41775292
3.8026524 4.145071 -0.41817468
3.5749462 3.8968606 -0.41706917
3.3868465 3.691694 -0.41815251
3.2013814 3.4895351 -0.41704488
3.0475705 3.3218796 -0.41745824
2.8964889 3.157089 -0.41650271
2.7769487 3.0267935 -0.41826239
2.6601562 2.8993917 -0.41856095
2.5512226 2.7806613 -0.41886219
2.4528849 2.6733863 -0.41949514
2.3676796 2.5805213 -0.42090079
2.2824974 2.4876819 -0.42141125
2.2026434 2.4005651 -0.42178276
2.1254299 2.3164134 -0.42138866
2.058748 2.2436612 -0.42232865
1.9972943 2.176688 -0.42348477
1.9437718 2.1182837 -0.4253394
1.890222 2.0599263 -0.42668056
1.8340963 1.9987617 -0.42670026
1.7832789 1.9433138 -0.42704013
1.7350483 1.8907548 -0.42752865
1.6868849 1.8382047 -0.42737463
1.6413474 1.7885824 -0.42709017
1.5984566 1.7417831 -0.42706379
1.5633607 1.7035403 -0.42860255
1.5283382 1.6653191 -0.4295221
1.4881078 1.621483 -0.42864102
1.4505057 1.5805107 -0.42798987
1.412986 1.5395743 -0.42669734
1.3832135 1.5071344 -0.42744958
1.356075 1.477513 -0.42862511
9.9383202 10.957365 2.8363421
9.8369579 10.845229 2.6008997
9.800827 10.805017 2.4550631
9.4735394 10.443829 2.2407672
9.4802179 10.451191 2.1772976
9.4869833 10.458282 2.1128211
6.0350704 6.6527214 1.2608689
6.070086 6.6913204 1.2261304
6.0737858 6.6953988 1.18485
6.0904427 6.7135248 1.1466128
6.0652394 6.6857433 1.0999981
6.0895233 6.7122765 1.0623912
6.0744166 6.6956248 1.018539
6.0619392 6.6816368 0.97471541
6.0518136 6.670476 0.93148625
6.0441208 6.6619968 0.88941252
6.0312247 6.6475492 0.84611499
6.0311446 6.6474609 0.80475718
6.0284019 6.6442051 0.7636987
6.0332994 6.6496029 0.72302413
6.02772 6.6432204 0.68111587
6.0244818 6.6396518 0.64018935
6.0211458 6.6359754 0.59870905
6.017797 6.6320519 0.55728751
6.0168004 6.6309538 0.51676083
6.0158186 6.6296387 0.47564846
6.0224595 6.6369572 0.43513009
6.0264525 6.6411252 0.39497113
6.035471 6.6510634 0.3544654
6.0417428 6.6579747 0.31370905
6.0899763 6.7108922 0.27538684
6.061892 6.6799445 0.23288023
6.0679092 6.6863408 0.19183989
6.0789266 6.6984816 0.15147115
6.0846953 6.7046027 0.11024582
6.0954704 6.7164755 0.069006264
6.1067319 6.7170963 0.028217694
6.1200109 6.7314663 -0.013278312
6.1251616 6.7371316 -0.054881837
6.1355615 6.7483344 -0.096016549
