# .PCD v0.7 - Point Cloud Data file format
VERSION 0.7
FIELDS x y z
SIZE 4 4 4
TYPE F F F
COUNT 1 1 1
WIDTH 1523
HEIGHT 1
VIEWPOINT 0 0 0 1 0 0 0
POINTS 1523
DATA ascii
-44.742493 -16.009777 62.991226
-44.716072 -15.659281 63.01828
-44.687401 -15.313107 63.038879
-44.675667 -14.968768 63.084248
-44.659752 -14.623817 63.125866
-44.635029 -14.280721 63.151756
-44.618389 -13.935908 63.189941
-16.02409 -3.9444401 22.630478
-15.717642 -3.7339849 22.214611
-15.664406 -3.6084225 22.159336
-15.792284 -3.5404286 22.36128
-6.5074224 -0.59161228 9.1360779
-6.4658184 -0.54398465 9.083333
-6.0023408 -0.37457931 8.4271851
-5.9407406 -0.32640791 8.3446541
-5.8789616 -0.2787416 8.2619743
-5.8238235 -0.23378894 8.1884327
-5.8016481 -0.19871166 8.1621609
-5.6244249 -0.068607569 7.9233494
-5.6241384 -0.040292948 7.9280872
-5.6061115 -0.0080928802 7.9072332
-5.5791016 0.025276572 7.873467
-5.7325373 0.051144511 8.1056595
-5.7185378 0.082452476 8.0908146
-5.6979322 0.11519903 8.0662336
-5.6815786 0.14687347 8.0479622
-5.6696739 0.17717302 8.0358353
-5.662097 0.20705351 8.0300484
-5.652153 0.23715371 8.0209904
-5.6466546 0.26609045 8.0181141
-5.6366634 0.29597667 8.008749
-5.6309166 0.32517451 8.0057487
-5.6274109 0.35363963 8.0057402
-5.6238132 0.38250536 8.0056686
-5.6200528 0.41133252 8.0055466
-5.6185327 0.43951359 8.0084305
-5.6168251 0.4681173 8.0113106
-5.6151352 0.49673834 8.0140228
-5.6133976 0.52493775 8.0165873
-5.6136627 0.5534265 8.0223732
-5.6205206 0.58162451 8.0376844
-5.6183834 0.60917103 8.0494719
-5.618413 0.63784814 8.0549488
-5.6206422 0.66651309 8.0634947
-5.6315651 0.69464517 8.0848589
-5.6379056 0.72346282 8.099741
-5.6377077 0.75245965 8.1047382
-5.6351967 0.78103828 8.1064243
-5.6500964 0.81027627 8.1339016
-5.6931973 0.84037733 8.2034416
-5.7361021 0.87076437 8.2729473
-7.1439829 0.95249176 10.379951
-6.9727097 0.98639733 10.131632
-6.5107403 1.0015544 9.4481716
-6.1123853 1.0136834 8.8584156
-5.8099403 1.0259738 8.4112148
-5.5187173 1.033772 7.9800644
-5.3058367 1.044003 7.6655712
-5.0931931 1.0507787 7.3509712
-4.9004292 1.0557636 7.0654049
-4.7424307 1.0618122 6.8316994
-4.6341619 1.0711912 6.6726532
-4.5132451 1.0768921 6.4939861
-4.3924809 1.0809535 6.3152475
-4.280448 1.0842909 6.149478
-4.1858592 1.0881791 6.009604
-4.0999632 1.0921884 5.8826718
-4.0227213 1.0962534 5.7687235
-3.9478319 1.0992287 5.6579571
-3.8793972 1.102422 5.5569277
-3.8132627 1.1049342 5.459085
-3.7536669 1.1074692 5.370966
-3.7004857 1.1106038 5.2925844
-3.6538169 1.1142921 5.2238879
-3.60938 1.1175275 5.1584263
-3.5628312 1.1197398 5.0897245
-3.520642 1.1222502 5.0274687
-3.4806352 1.1244426 4.9684801
-3.4449337 1.1272888 4.9159269
-3.4029717 1.127848 4.8536515
-3.3631928 1.1281576 4.7946486
-3.3277063 1.1292121 4.7420874
-3.3006868 1.1321968 4.7024655
-3.271615 1.1339576 4.6596375
-3.2446978 1.1360723 4.620007
-3.2178018 1.1377554 4.5803952
-3.1889296 1.1381812 4.5375481
-3.1580093 1.1375766 4.4914684
-3.1292105 1.1372012 4.4486451
-45.28447 -17.109577 63.007568
-45.270817 -16.76016 63.050873
-45.243851 -16.411612 63.076782
-45.210625 -16.055611 63.092533
-45.166527 -15.696765 63.095169
-45.151196 -15.354156 63.134769
-45.157349 -15.014767 63.205334
-45.108269 -14.656195 63.200592
-45.101345 -14.317919 63.251747
-45.084801 -13.971535 63.29026
-16.298126 -3.9961076 22.83379
-15.76992 -3.7125435 22.109638
-15.731951 -3.5922394 22.076435
-15.94956 -3.5519335 22.403269
-15.686891 -3.3641944 22.051615
-6.5179005 -0.54780269 9.0991917
-6.3049159 -0.45142323 8.8039169
-5.9939985 -0.33149064 8.3691101
-5.9385142 -0.28545576 8.2961922
-5.8563681 -0.23322178 8.1850338
-5.8185062 -0.19410416 8.1367311
-5.7917767 -0.15786563 8.1040487
-5.6557636 -0.067909867 7.9208169
-5.6554885 -0.039523572 7.925559
-5.6373596 -0.0072654784 7.9047842
-5.6213002 0.023831367 7.8870316
-5.746851 0.055719793 8.0771999
-5.7305574 0.087360978 8.0592079
-5.709836 0.12000474 8.0346947
-5.6933961 0.15157974 8.0164719
-5.6792126 0.18214375 8.0011816
-5.6716032 0.21191373 7.9954042
-5.6638322 0.24157801 7.9895658
-5.6560974 0.27073127 7.9834919
-5.6482768 0.30021635 7.9773512
-5.6425118 0.32932281 7.9743571
-5.6390004 0.35769963 7.9743452
-5.6376114 0.38623974 7.9774799
-5.6338449 0.4149946 7.9773579
-5.6301188 0.44330695 7.9770188
-5.6284199 0.47182235 7.9798899
-5.6267366 0.50035501 7.9825912
-5.6250057 0.52846724 7.9851465
-5.6252933 0.55686927 7.9909143
-5.6300073 0.58509767 8.0029593
-5.6279359 0.61254436 8.0147266
-5.6279874 0.64111674 8.0201874
-5.6302528 0.66967869 8.0287066
-5.6412668 0.69771606 8.0500069
-5.6542625 0.72636068 8.0745335
-5.6540804 0.75530577 8.0795202
-5.6515722 0.78383178 8.0812054
-5.6622 0.81297266 8.1021404
-5.6858807 0.84260368 8.1423769
-5.7093954 0.87220728 8.1825657
-7.5639591 0.97096205 10.930424
-7.0065598 0.99039435 10.113457
-6.5416222 1.0052035 9.4320049
-6.1407061 1.0170352 8.8439798
-5.834137 1.0289522 8.3948536
-5.5432215 1.0366898 7.9682078
-5.3246198 1.0463953 7.6481624
-5.1171365 1.0536008 7.3442011
-4.9209576 1.0582455 7.0562344
-4.7662821 1.0646676 6.8296928
-4.6508102 1.0732402 6.6613984
-4.5269508 1.0785702 6.4800167
-4.407577 1.0828116 6.3050418
-4.2948251 1.0860603 6.1397591
-4.1974692 1.0895455 5.997057
-4.1131811 1.0938152 5.8737364
-4.0354443 1.0978193 5.7601233
-3.9600739 1.1007355 5.649682
-3.8912003 1.1038747 5.5489492
-3.8246412 1.1063346 5.4513941
-3.7668068 1.1092563 5.3667698
-3.7132823 1.1123666 5.2886181
-3.6598949 1.1146287 5.2104182
-3.6151786 1.1177943 5.1451502
-3.5704706 1.1204385 5.0798855
-3.5322752 1.1239413 5.0242777
-3.4898813 1.1255805 4.9622307
-3.4560757 1.128955 4.9130626
-3.4159629 1.1300726 4.854197
-3.3780413 1.1309766 4.7985935
-3.3402014 1.1314467 4.7429552
-3.3108907 1.1338189 4.700222
-3.2795196 1.1349304 4.6542959
-3.25243 1.1370237 4.6147814
-3.2232583 1.1380072 4.5720654
-3.1984038 1.1397845 4.5357842
-3.1672807 1.1391727 4.4898372
-3.138293 1.1387922 4.4471378
-45.780582 -17.174616 63.14072
-45.733673 -16.809956 63.138245
-45.711243 -16.461672 63.170742
-45.704815 -16.114477 63.223999
-45.62722 -15.741191 63.180763
-45.629875 -15.403721 63.245476
-45.598343 -15.04887 63.263596
-45.551407 -14.689754 63.26239
-45.551346 -14.352445 63.323128
-45.555023 -14.011464 63.389954
-45.567886 -13.67412 63.471817
-16.366886 -3.869205 22.765709
-16.120909 -3.6791499 22.442944
-16.111912 -3.5659542 22.450268
-15.914755 -3.3979816 22.193771
-15.580533 -3.1914759 21.745575
-6.3491964 -0.45364138 8.8108921
-6.0475416 -0.33688295 8.3931427
-6.0073857 -0.29487637 8.3425159
-5.9314528 -0.24410202 8.2412119
-5.8441582 -0.19211489 8.1238022
-5.8150396 -0.15532517 8.0880747
-5.7813697 -0.11790729 8.0458412
-5.7296448 -0.077317148 7.9781103
-5.6801763 -0.03756997 7.913311
-5.6664205 -0.0062659681 7.8989434
-5.6592169 0.02302134 7.8939381
-5.7520499 0.061661273 8.0359669
-5.7401419 0.092332929 8.0243711
-5.7193069 0.12485796 7.9999232
-5.7027817 0.15631723 7.9817495
-5.6907582 0.1864107 7.9696832
-5.6808853 0.2164284 7.9607325
-5.6730843 0.24598271 7.9549065
-5.6653185 0.27502736 7.9488449
-5.6574659 0.30440223 7.9427176
-5.6539135 0.33313057 7.942924
-5.6503983 0.36141896 7.9429102
-5.64679 0.39010525 7.9428339
-5.6452465 0.4185361 7.94591
-5.6415157 0.44675982 7.9455714
-5.6398258 0.47518691 7.9484329
-5.6381507 0.50363111 7.9511256
-5.6386509 0.53151 7.956882
-5.6367373 0.55997109 7.959424
-5.6415009 0.58811557 7.9714332
-5.6372757 0.61557257 7.9799719
-5.6351347 0.64411569 7.9821997
-5.6374378 0.6725564 7.9906926
-5.6485443 0.70048034 8.0119286
-5.6616488 0.7290113 8.0363827
-5.6636996 0.7578283 8.0445776
-5.6611986 0.78624898 8.0462589
-5.6697116 0.8152622 8.0639114
-5.6913643 0.8447389 8.1008062
-5.7128534 0.87415528 8.1376534
-7.5815244 0.97412801 10.880621
-7.0469899 0.99424183 10.104788
-6.5702915 1.0083249 9.4124527
-6.16682 1.0198784 8.8261719
-5.8582988 1.0315826 8.3783798
-5.5655303 1.0391183 7.9529991
-5.3455367 1.0486722 7.6339045
-5.1367331 1.0557339 7.3308449
-4.9349298 1.0597939 7.0372734
-4.7814589 1.0663152 6.8146334
-4.6652555 1.0747902 6.6468401
-4.5449705 1.0805711 6.4724569
-4.4226561 1.0844525 6.2947712
-4.3026595 1.0866859 6.1202912
-4.2112103 1.0910405 5.9877005
-4.1242146 1.0949043 5.861517
-4.0481548 1.0992019 5.7514706
-3.9744701 1.1024487 5.6445847
-3.9051564 1.1055578 5.5441518
-3.8381705 1.1079892 5.4468851
-3.7756488 1.1100175 5.3560586
-3.7239428 1.113526 5.2813659
-3.6680627 1.1152804 5.2001734
-3.6252151 1.1188856 5.1383247
-3.5780759 1.1209935 5.0700297
-3.5374961 1.1239291 5.0113659
-3.4948385 1.1255045 4.9495053
-3.4608245 1.1288202 4.900486
-3.4204617 1.1298751 4.8417969
-3.3823047 1.130718 4.7863607
-3.3463593 1.1317374 4.7341075
-3.3147385 1.1334437 4.6882868
-3.283174 1.134499 4.642499
-3.258039 1.1372011 4.6063185
-3.2308023 1.138827 4.5669422
-3.2057898 1.1405871 4.5307689
-3.1765783 1.1406685 4.4881659
-3.1495092 1.1410172 4.4487982
-46.265453 -17.229939 63.253384
-46.216255 -16.862724 63.248352
-46.20739 -16.518076 63.299698
-46.167496 -16.156181 63.307121
-46.105366 -15.787338 63.286072
-46.101517 -15.445762 63.341797
-46.065514 -15.087717 63.354118
-46.058952 -14.741331 63.409103
-46.016403 -14.387445 63.411263
-46.027042 -14.047182 63.487621
-46.042439 -13.708963 63.572777
-15.930913 -3.6898079 21.980042
-16.164743 -3.6549907 22.323971
-16.166981 -3.5455685 22.346823
-15.802154 -3.3283358 21.86006
-15.767426 -3.2111754 21.831753
-15.73274 -3.0944502 21.802706
-6.09237 -0.33939835 8.4043608
-6.0767384 -0.30387551 8.3884182
-6.0341115 -0.26156074 8.3345776
-5.8202524 -0.17732136 8.0416861
-5.8337288 -0.15134721 8.0657673
-5.8133674 -0.11717568 8.0425529
-5.7545834 -0.075012952 7.9655924
-5.6958199 -0.033299714 7.8883824
-5.6954918 -0.0049293041 7.8929982
-5.690506 0.023944765 7.8911843
-5.756228 0.096394598 7.9991007
-5.7330294 0.12924311 7.9715562
-5.7141685 0.1609939 7.9502611
-5.6998386 0.19134852 7.935051
-5.6921673 0.22091588 7.9292974
-5.6843343 0.2503773 7.9234848
-5.678781 0.27902725 7.9206195
-5.67314 0.30804151 7.9176927
-5.6673374 0.3369832 7.9147129
-5.6660581 0.36495039 7.9178863
-5.6646852 0.39334968 7.9210014
-5.6631479 0.42174569 7.9240713
-5.6616478 0.44973573 7.9269304
-5.6577215 0.47832504 7.9265928
-5.6560512 0.50673401 7.9292812
-5.6543322 0.5347243 7.9318242
-5.6524239 0.56313229 7.9343619
-5.6572332 0.59122884 7.9463367
-5.6508179 0.61872756 7.9516702
-5.6486826 0.64719975 7.9538922
-5.6532454 0.67551649 7.965569
-5.6622128 0.70343697 7.9835362
-5.6754193 0.73190892 8.0079203
-5.6752777 0.76066154 8.0128794
-5.6727819 0.78899467 8.0145597
-5.6813698 0.81792724 8.0321608
-5.7031803 0.84733391 8.0689487
-5.7248287 0.87668139 8.1056881
-7.6097908 0.97820574 10.846917
-7.0829625 0.99836117 10.089487
-6.5988312 1.0118662 9.3927898
-6.2016578 1.0236552 8.8211327
-5.8845596 1.0347226 8.3650265
-5.5943556 1.0423925 7.9473562
-5.3663573 1.0512557 7.6195598
-5.1606426 1.0585706 7.3238468
-4.9553614 1.0622821 7.0279336
-4.8031197 1.0689445 6.8091793
-4.6883783 1.0776258 6.6451092
-4.5541658 1.0816923 6.4519281
-4.4398541 1.0866108 6.2876534
-4.319098 1.0887679 6.1136951
-4.2226963 1.0924054 5.9750614
-4.1351557 1.0961835 5.8492565
-4.0608015 1.1007712 5.7427588
-3.9866531 1.1039602 5.6361933
-3.9147253 1.1066132 5.5328422
-3.8473201 1.1089743 5.4358673
-3.7844069 1.1109364 5.3453126
-3.7302091 1.1139324 5.2676282
-3.6783152 1.1165524 5.1931114
-3.6330347 1.1196346 5.128233
-3.5877626 1.1221952 5.0633578
-3.5469277 1.1250993 5.0048699
-3.5083125 1.1277254 4.9496193
-3.469774 1.1299305 4.8943219
-3.4313064 1.131531 4.8390188
-3.390759 1.1317669 4.7805381
-3.3545868 1.132758 4.7284412
-3.3227673 1.1344397 4.6827574
-3.2931414 1.1361171 4.6403117
-3.2657113 1.138153 4.6010346
-3.2383037 1.1397575 4.5617766
-3.2110062 1.140799 4.522511
-3.1837373 1.1415566 4.4832358
-3.1564977 1.1418842 4.4439859
-46.848976 -17.326694 63.493786
-46.74337 -16.934732 63.412964
-46.75502 -16.596006 63.492336
-46.627098 -16.19845 63.380657
-46.612251 -15.845851 63.424679
-46.579247 -15.49172 63.440731
-46.624611 -15.161156 63.564457
-46.695107 -14.839394 63.724815
-46.553062 -14.448699 63.591743
-46.536854 -14.097267 63.631298
-46.518631 -13.74608 63.67025
-16.049398 -3.6909037 21.967426
-16.05162 -3.5831442 21.990551
-16.31192 -3.5535159 22.367443
-16.252787 -3.4271128 22.305574
-16.140961 -3.2849765 22.172022
-15.850291 -3.0943513 21.791052
-6.1305766 -0.34026927 8.4058838
-6.1307158 -0.30884743 8.4119015
-6.1218114 -0.27506292 8.4052153
-5.8500428 -0.17637117 8.0350113
-5.843235 -0.14540897 8.0308161
-5.836349 -0.11453331 8.0264931
-5.806654 -0.079069644 7.9906182
-5.7769737 -0.043597966 7.9545693
-5.7177896 -0.0023658574 7.8774214
-5.7218413 0.024667501 7.8882217
-5.7643766 0.044706702 7.9525318
-5.7887177 0.068826228 7.9915929
-5.7721663 0.10022795 7.9737568
-5.742053 0.13417658 7.9368138
-5.7208319 0.16618127 7.9124146
-5.7064295 0.19640526 7.8972416
-5.7009888 0.22550821 7.8946638
-5.6953845 0.25454053 7.8920336
-5.6898136 0.28310078 7.889174
-5.6864128 0.31174004 7.8894277
-5.6851063 0.34007615 7.8928099
-5.6815767 0.36825767 7.8927984
-5.6779547 0.39683512 7.8927245
-5.6764255 0.42516059 7.8957863
-5.674933 0.45308119 7.8986373
-5.6755075 0.48124215 7.9046731
-5.6738415 0.5096159 7.9073572
-5.6721268 0.53757137 7.9098969
-5.6702228 0.56594408 7.9124317
-5.6728296 0.59411728 7.9211826
-5.66644 0.62156403 7.9265261
-5.6643095 0.64998299 7.9287453
-5.6666765 0.67830598 7.937192
-5.6757183 0.70616436 7.9551077
-5.6845484 0.73461545 7.9730196
-5.6844287 0.76326275 7.9779658
-5.6819415 0.79149067 7.9796419
-5.6906047 0.8203243 7.9971914
-5.7237406 0.84989774 8.0498943
-5.7566962 0.87958825 8.1025591
-7.6267529 0.98150641 10.797074
-7.1144695 1.0019755 10.067584
-6.6273131 1.0151335 9.3729916
-6.2254324 1.0264981 8.7998543
-5.9107995 1.0376346 8.3515434
-5.61656 1.0449393 7.9319272
-5.3849187 1.0534467 7.6019115
-5.175705 1.0603867 7.3038831
-4.9780006 1.0648255 7.0217028
-4.8181677 1.0706787 6.7939792
-4.7049246 1.0795231 6.6336169
-4.5742884 1.084054 6.4474401
-4.4548469 1.08833 6.2772412
-4.3399453 1.0913477 6.1134391
-4.238533 1.0943022 5.9688044
-4.1504426 1.0980351 5.843379
-4.0712314 1.10185 5.7307849
-3.9966216 1.1049687 5.6245418
-3.9242477 1.1075523 5.5215039
-3.8586118 1.110269 5.428031
-3.7953057 1.1121861 5.3377495
-3.7429533 1.1155992 5.2635069
-3.6907327 1.1181996 5.1892147
-3.6473448 1.121758 5.127738
-3.6017852 1.1243215 5.0630574
-3.5563459 1.1261786 4.9983377
-3.5174901 1.1287771 4.943254
-3.4787111 1.1309549 4.8881245
-3.4378397 1.1319487 4.8297873
-3.3992023 1.1327343 4.774684
-3.3628039 1.1336997 4.722744
-3.3329394 1.1359898 4.6803961
-3.3031261 1.1376631 4.6380777
-3.2733741 1.1390309 4.5957236
-3.2436509 1.1399324 4.5533919
-3.216186 1.1409372 4.5142465
-3.1887503 1.1416578 4.4750919
-3.1656127 1.1434193 4.4423375
-47.263184 -17.351219 63.499451
-47.19574 -16.973377 63.471119
-47.21677 -16.636747 63.562904
-47.113289 -16.247236 63.485683
-47.078136 -15.8854 63.502491
-47.067879 -15.538027 63.549625
-47.075081 -15.192019 63.621212
-47.14167 -14.867216 63.775337
-47.114979 -14.514631 63.800159
-47.021534 -14.135303 63.735321
-46.957886 -13.767717 63.712849
-16.133909 -3.6803212 21.907949
-16.675779 -3.7389936 22.664667
-16.475538 -3.5660059 22.412151
-16.309067 -3.4076791 22.204798
-16.269497 -3.2866523 22.17104
-15.968006 -3.093379 21.778904
-6.1757083 -0.34272331 8.4165688
-6.1872549 -0.31413096 8.4381876
-6.2102065 -0.28822961 8.4752493
-6.2329721 -0.26244679 8.5122414
-5.8661737 -0.14253668 8.0146751
-5.8433118 -0.10796976 7.9884706
-5.7650709 -0.0048110187 7.8962965
-5.7486601 0.026539296 7.8788371
-5.6292706 0.10548246 7.7239552
-5.7811174 0.10549068 7.9389586
-5.7531114 0.13892424 7.9052715
-5.7317762 0.17082605 7.8809423
-5.7195759 0.20060092 7.8689671
-5.7163906 0.22929558 7.8695526
-5.7107673 0.2582722 7.866931
-5.7051764 0.28677744 7.8640804
-5.7017689 0.31536251 7.8643336
-5.6981988 0.34391049 7.8645396
-5.6969337 0.37177405 7.8676953
-5.6910343 0.40052637 7.8644524
-5.6895127 0.42878139 7.8675041
-5.6880274 0.45663252 7.8703456
-5.6886225 0.48472458 7.8763642
-5.6869631 0.51302767 7.8790398
-5.6852541 0.54091358 7.8815718
-5.6833563 0.56921548 7.8840995
-5.6859961 0.59732127 7.8928246
-5.679637 0.62469906 7.8981733
-5.6775117 0.65304697 7.9003878
-5.6799111 0.68130231 7.9088111
-5.6890268 0.70909941 7.9266729
-5.6956782 0.73750556 7.9413428
-5.6955771 0.76606572 7.9462748
-5.6930952 0.79420584 7.947948
-5.704082 0.82299435 7.9686408
-5.746429 0.85273582 8.0339661
-5.7885838 0.88273531 8.0992613
-7.6635437 0.98591602 10.776019
-7.141366 1.0056889 10.039161
-6.6579194 1.0188049 9.3562775
-6.249073 1.0295939 8.7784882
-5.9347324 1.0406282 8.3347435
-5.6386719 1.0477052 7.9164052
-5.4055982 1.0560333 7.5873957
-5.2017817 1.0634466 7.2998753
-5.0006189 1.0675557 7.0153551
-4.8464708 1.0740614 6.7979269
-4.7213998 1.0815839 6.6220531
-4.5899553 1.0860136 6.4364433
-4.4719944 1.090497 6.2699633
-4.35638 1.0934434 6.1066599
-4.2543373 1.0963367 5.9624662
-4.1657004 1.1000192 5.8374228
-4.0837874 1.1034205 5.7219725
-4.0087161 1.1064813 5.6160531
-3.935895 1.1090093 5.5133295
-3.8720555 1.1120977 5.4233398
-3.8083549 1.1139832 5.3333325
-3.7512832 1.1164578 5.2529221
-3.6965485 1.1185247 5.1756601
-3.6528978 1.1220149 5.1143727
-3.6092515 1.1250186 5.0530863
-3.5700917 1.1284074 4.998147
-3.5288076 1.130465 4.9400368
-3.4919662 1.1331931 4.8882666
-3.4486589 1.1336101 4.8269138
-3.4097791 1.1343831 4.7719774
-3.3731523 1.1353376 4.7201943
-3.3431005 1.1376221 4.6779737
-3.3131003 1.1392899 4.6357837
-3.2809997 1.1399846 4.590373
-3.2510927 1.1408631 4.5481701
-3.2234581 1.1418465 4.5091438
-3.1958523 1.1425459 4.4701085
-3.1725721 1.1442897 4.4374542
-47.657593 -17.369959 63.474693
-47.649323 -17.014355 63.525883
-47.643307 -16.665829 63.581284
-47.617111 -16.304295 63.608395
-47.561432 -15.93313 63.598209
-47.567337 -15.589894 63.667076
-47.517639 -15.221996 63.662392
-47.509338 -14.869831 63.715229
-47.47123 -14.512659 63.724884
-47.468971 -14.162827 63.783478
-47.407436 -13.794643 63.764549
-47.380219 -13.443022 63.78849
-16.763306 -3.7288427 22.602303
-16.465704 -3.5272927 22.220856
-16.309725 -3.3731298 22.029499
-16.398275 -3.2890892 22.169151
-16.395224 -3.1783504 22.184425
-16.492695 -3.0962396 22.33551
-6.0861387 -0.2174364 8.2609243
-5.8890414 -0.13988547 7.998395
-5.8339682 -0.097965643 7.9286118
-5.8337355 -0.069522172 7.9334998
-5.8335128 -0.040618956 7.9382915
-5.8088498 0.078923255 7.925024
-5.7898388 0.11051613 7.9041467
-5.7616777 0.14382556 7.8705578
-5.7425194 0.17523947 7.8494406
-5.734838 0.20421815 7.8437905
-5.7293596 0.23319227 7.8412266
-5.7237186 0.26209566 7.8386126
-5.7181091 0.2905286 7.8357692
-5.71241 0.31932232 7.8328657
-5.711122 0.34751797 7.8362255
-5.7052956 0.37580287 7.8330536
-5.7016621 0.40421849 7.8329773
-5.6978674 0.43259525 7.8328552
-5.6963902 0.46034193 7.8356848
-5.6970091 0.48832956 7.841682
-5.6953583 0.51652646 7.844347
-5.6959367 0.54416811 7.850039
-5.6940475 0.57238144 7.8525596
-5.696722 0.60040188 7.8612576
-5.6926694 0.62760651 7.8697863
-5.6950922 0.65574509 7.8783507
-5.6952524 0.68401945 7.8835735
-5.7021713 0.71180588 7.8982058
-5.7066174 0.74016356 7.9096518
-5.7065358 0.76863635 7.9145708
-5.7063236 0.79670787 7.9194255
-5.7128725 0.82536095 7.9336896
-5.7442002 0.85475469 7.9828911
-5.775352 0.88423336 8.0320549
-7.9011869 0.99798393 11.038399
-7.179419 1.0096304 10.026566
-6.6817322 1.0218307 9.3298454
-6.2771373 1.0327221 8.7634001
-5.9586163 1.0433905 8.317832
-5.6652355 1.0506132 7.9071608
-5.4262362 1.0584201 7.5727849
-5.2234144 1.0659024 7.2893414
-5.0232568 1.0701164 7.0088868
-4.8636799 1.0760512 6.7857475
-4.7356062 1.0832189 6.6072254
-4.6078286 1.0881056 6.4285688
-4.4824424 1.0916187 6.2530293
-4.3683548 1.0947666 6.09342
-4.2656879 1.0975699 5.9496698
-4.1809626 1.1018804 5.8313923
-4.0985451 1.1052414 5.7162971
-4.0252323 1.1086556 5.6138935
-3.9497414 1.1107601 5.508296
-3.8855081 1.113821 5.4185829
-3.8192005 1.1152368 5.3256645
-3.7639899 1.1181303 5.2486897
-3.7111247 1.1206533 5.1748519
-3.6672025 1.1241472 5.1137519
-3.6188786 1.1261309 5.0462828
-3.5794797 1.129492 4.9915128
-3.5379424 1.1315206 4.9335823
-3.5030692 1.1347873 4.8851538
-3.4616833 1.1357732 4.8271704
-3.4203715 1.1359537 4.7692204
-3.3835168 1.1368997 4.7175951
-3.3510971 1.138546 4.6723261
-3.3209131 1.1401925 4.6302662
-3.2864404 1.1401951 4.58182
-3.2563534 1.1410351 4.5397491
-3.2285523 1.1419817 4.5008445
-3.2029457 1.1433653 4.4651008
-3.1838465 1.14657 4.4388852
-48.160683 -17.428446 63.590675
-48.166397 -17.076405 63.660431
-48.142216 -16.719049 63.691921
-48.106911 -16.352365 63.70731
-48.083328 -15.991282 63.740276
-48.045803 -15.63056 63.751534
-48.051243 -15.280371 63.820587
-48.017815 -14.917553 63.840195
-48.13623 -14.610863 64.058449
-47.970726 -14.204696 63.900009
-47.934364 -13.84285 63.915386
-47.89106 -13.484289 63.918232
-16.850578 -3.7178254 22.539734
-16.394558 -3.47015 21.950104
-16.322948 -3.3418479 21.873217
-16.506573 -3.2847958 22.138903
-16.508163 -3.175137 22.16037
-6.5297232 -0.31627148 8.8085241
-6.5528092 -0.28771085 8.8455954
-5.8725872 -0.098799542 7.9342623
-5.8608375 -0.067697495 7.9236021
-5.8514047 -0.036799282 7.9159303
-5.8326731 -0.0041373074 7.8956566
-5.8427763 0.079654634 7.9245949
-5.7960153 0.11614525 7.8662581
-5.774611 0.1481584 7.8421578
-5.7576561 0.17912206 7.8242388
-5.7499418 0.2080442 7.8186054
-5.7444439 0.23696268 7.8160505
-5.7364831 0.2661241 7.8103037
-5.7285533 0.29478106 7.8043246
-5.722836 0.32348344 7.8014264
-5.7192574 0.35185233 7.8016248
-5.7134128 0.38002956 7.7984571
-5.709775 0.40833765 7.798377
-5.7059751 0.43660679 7.7982512
-5.7045069 0.46424907 7.8010683
-5.7028542 0.4923054 7.8038864
-5.703506 0.52022314 7.8096962
-5.7018147 0.54789972 7.8122082
-5.6999345 0.57598913 7.8147163
-5.704936 0.60378653 7.8265476
-5.7032208 0.63080454 7.8382311
-5.705678 0.65885788 7.8467698
-5.7058582 0.68704522 7.8519773
-5.7128382 0.71475101 7.8665643
-5.7173314 0.74302495 7.8779759
-5.7218275 0.77141702 7.8892264
-5.7216315 0.79943758 7.8940697
-5.7259612 0.82800555 7.9051189
-5.7484002 0.8571288 7.9414701
-5.7706785 0.88619816 7.9777789
-7.9504004 1.0030205 11.032009
-7.2174253 1.0138923 10.013784
-6.7099085 1.0253837 9.3096952
-6.3073864 1.036254 8.7513647
-5.984664 1.0465519 8.3040018
-5.691762 1.0537469 7.8977857
-5.4535675 1.0616037 7.5676289
-5.2427349 1.0683386 7.2755251
-5.0368495 1.0719342 6.9895792
-4.880815 1.078212 6.7734942
-4.7519655 1.0852818 6.5955272
-4.6234121 1.0900705 6.4174252
-4.4972644 1.0934876 6.2424307
-4.3757501 1.0955859 6.0737743
-4.2814355 1.0996112 5.9431934
-4.193954 1.1035186 5.8221025
-4.1132741 1.10719 5.7105455
-4.0350447 1.1097835 5.6020999
-3.9590979 1.1118127 5.4968309
-3.890018 1.1139544 5.4010391
-3.8255424 1.1157107 5.3115888
-3.7700028 1.1185269 5.2348542
-3.7146008 1.1204953 5.1580706
-3.6704204 1.1239036 5.0971627
-3.6240284 1.1263117 5.0330811
-3.5888228 1.1306701 4.9848328
-3.5470345 1.1326669 4.9270821
-3.509743 1.1353407 4.8756323
-3.465904 1.1356933 4.8146577
-3.4221463 1.1352066 4.7537193
-3.389473 1.137309 4.7085962
-3.3590541 1.1395493 4.6666374
-3.3286874 1.1411726 4.6247087
-3.2940049 1.1411489 4.5764122
-3.2637353 1.1419657 4.534472
-3.2357657 1.142891 4.4956884
-3.2100034 1.144255 4.4600558
-3.1886146 1.1467048 4.4307628
-48.647034 -17.481983 63.67868
-48.664589 -17.132732 63.763832
-48.635891 -16.77195 63.7897
-48.56826 -16.391653 63.763123
-48.572517 -16.039158 63.832859
-48.528069 -15.674364 63.835449
-48.533764 -15.322556 63.904751
-48.474903 -14.949523 63.891262
-48.459919 -14.596869 63.932262
-48.418678 -14.230867 63.939484
-48.426331 -13.881598 64.013329
-48.394562 -13.524975 64.031937
-48.372467 -13.167103 64.066376
-16.379227 -3.4310508 21.756893
-16.369823 -3.3214264 21.763109
-16.556894 -3.2651668 22.030998
-16.621147 -3.1727121 22.135544
-16.724516 -3.0912557 22.291977
-6.5584073 -0.31374741 8.7924957
-6.6141143 -0.29271865 8.8728104
-5.9113264 -0.099829316 7.9396381
-5.8879247 -0.066084653 7.9135289
-5.8645339 -0.03222838 7.8872643
-5.8503428 -0.00058922172 7.8732681
-5.8383107 0.029962897 7.8622408
-5.8420033 0.086450756 7.877192
-5.8042517 0.12113503 7.8314981
-5.7850528 0.15264603 7.8105888
-5.772646 0.18278092 7.7989702
-5.7625837 0.21199453 7.7902284
-5.7547522 0.24116969 7.7845516
-5.7467608 0.2702387 7.7788196
-5.7387996 0.29880425 7.7728558
-5.7330642 0.32741559 7.7699642
-5.7294817 0.35569483 7.7701607
-5.7259302 0.38354012 7.7701397
-5.7222862 0.41177621 7.7700596
-5.7161708 0.44017982 7.7667913
-5.7147107 0.46773505 7.769598
-5.7130671 0.49570301 7.7724066
-5.7114329 0.5236876 7.7750497
-5.7097497 0.5512594 7.7775517
-5.7078786 0.57924253 7.7800512
-5.7129302 0.60693848 7.7918425
-5.7112808 0.63385636 7.8035059
-5.7160721 0.66174054 7.815176
-5.7185698 0.68979263 7.8235273
-5.7256107 0.71743482 7.8380709
-5.7301502 0.74564254 7.8494511
-5.7346916 0.7739681 7.8606691
-5.7345147 0.80191994 7.8655009
-5.7411795 0.83046138 7.8796849
-5.7706361 0.8597225 7.9254231
-5.7999225 0.88903499 7.9711251
-8.0179787 1.0084752 11.050666
-7.2622962 1.0181932 10.0103
-6.7357435 1.0285344 9.2862434
-6.3399162 1.0396883 8.7423391
-6.0129676 1.049649 8.293211
-5.7205734 1.0568542 7.8914399
-5.4786644 1.0643981 7.5591488
-5.2620168 1.0705867 7.2616215
-5.0503511 1.0735693 6.9702296
-4.8979168 1.0802059 6.7611647
-4.7682934 1.0871854 6.5837574
-4.6367035 1.0915968 6.4030428
-4.5143189 1.0955169 6.2349386
-4.3943286 1.09787 6.0699816
-4.2994423 1.101864 5.9398103
-4.2114286 1.1057452 5.8190989
-4.1302595 1.1093953 5.7078924
-4.0493054 1.1115762 5.5966158
-3.9728987 1.1135697 5.4916768
-3.8966706 1.1143968 5.3866773
-3.8318117 1.116073 5.2975087
-3.7759438 1.1188151 5.2210164
-3.7269192 1.1221507 5.1539769
-3.6847036 1.1260434 5.096426
-3.6380272 1.1284537 5.0325446
-3.6003785 1.1322901 4.9812822
-3.5561123 1.1337246 4.920548
-3.5185971 1.1363722 4.8692589
-3.4722757 1.1361086 4.8053141
-3.4304714 1.1361765 4.7477279
-3.3953905 1.1376358 4.6995878
-3.3625836 1.1391995 4.6546035
-3.3342462 1.141422 4.6159658
-3.2993577 1.1413562 4.5678225
-3.2711082 1.1428244 4.5291691
-3.2429698 1.1437302 4.4905071
-3.2170527 1.1450762 4.4549861
-3.191159 1.1460268 4.419487
-49.295452 -17.594826 63.971912
-49.150764 -17.180729 63.846718
-49.13842 -16.824446 63.894112
-49.126442 -16.462879 63.940639
-49.058876 -16.082361 63.916988
-49.077213 -15.73805 64.001823
-49.031975 -15.366545 64.004745
-49.005592 -15.002784 64.034317
-48.783463 -14.580108 63.805038
-48.963455 -14.28475 64.101692
-48.927094 -13.919522 64.117928
-48.911652 -13.566196 64.158287
-48.896626 -13.208557 64.202271
-48.842068 -12.839308 64.192093
-16.41601 -3.3002238 21.653116
-16.800116 -3.2981522 22.17774
-17.056063 -3.2557833 22.533979
-16.994503 -3.1284356 22.472202
-6.3651357 -0.32224706 8.4717216
-6.5543737 -0.30316862 8.7332115
-6.6827412 -0.29902682 8.9089165
-6.7573562 -0.28094184 9.0137739
-5.8776693 -0.056179494 7.8538771
-5.8774815 -0.027448237 7.8586159
-5.8655519 0.0036427677 7.8477583
-5.8534627 0.034135461 7.8367662
-5.8460445 0.064039022 7.831852
-5.8292227 0.09551537 7.8143916
-5.8145804 0.12592599 7.799902
-5.7999439 0.15657386 7.7852764
-5.7898097 0.18628475 7.7768087
-5.7797003 0.21545741 7.7680979
-5.769506 0.24492112 7.7593217
-5.7568245 0.27455369 7.7473674
-5.7488308 0.3030276 7.7414193
-5.7407498 0.33182293 7.7354074
-5.7394896 0.35973716 7.7387247
-5.7359328 0.38749406 7.7387009
-5.7322836 0.41564026 7.7386184
-5.7261491 0.4439522 7.7353592
-5.7246962 0.47142053 7.7381544
-5.7230606 0.49930018 7.7409534
-5.7214341 0.52719641 7.7435856
-5.719758 0.55468112 7.7460785
-5.7178941 0.58257568 7.7485704
-5.7183576 0.61038601 7.7540379
-5.7167778 0.63718712 7.7656765
-5.7216206 0.6649524 7.7773066
-5.724154 0.69288349 7.7856288
-5.7335672 0.72038138 7.8032761
-5.7381554 0.74848753 7.8146195
-5.7427449 0.77671158 7.8258033
-5.7448936 0.80458415 7.8337746
-5.7539215 0.83308536 7.8510695
-5.7904792 0.86247826 7.9061346
-5.8590584 0.89310789 8.0053549
-8.0880909 1.0144284 11.07206
-7.2888279 1.021925 9.9813099
-6.7637272 1.0320921 9.2658567
-6.3632469 1.0427983 8.7205133
-6.0366421 1.0526587 8.2759647
-5.7425046 1.0596424 7.8754625
-5.4968672 1.0668019 7.5410628
-5.2812147 1.0730274 7.2476368
-5.0682859 1.0758495 6.9571648
-4.9103813 1.0818632 6.7424397
-4.7799916 1.0887094 6.5655937
-4.6544514 1.0938522 6.3949342
-4.5290608 1.097391 6.2242002
-4.403811 1.0990047 6.053443
-4.3129029 1.1035752 5.9300056
-4.2243652 1.1073898 5.8096762
-4.1449776 1.1113553 5.701982
-4.061276 1.113098 5.5878968
-3.9866738 1.1154455 5.4864492
-3.9099874 1.1162325 5.3817811
-3.8447392 1.1178769 5.2928934
-3.7862847 1.1201296 5.2134848
-3.7369685 1.1234281 5.1466575
-3.6967483 1.1277884 5.0924463
-3.6520345 1.1306984 5.0319223
-3.6096764 1.133472 4.9745102
-3.5629091 1.1343209 4.9108143
-3.5274081 1.1374922 4.8628426
-3.4808099 1.1371934 4.799099
-3.438756 1.1372296 4.7416954
-3.3990154 1.1374185 4.6874075
-3.3704638 1.1402012 4.6488647
-3.3397396 1.1417456 4.6072025
-3.3068609 1.14231 4.5623584
-3.2784436 1.1437569 4.5238276
-3.2501373 1.1446412 4.4852877
-3.224066 1.1459675 4.4498796
-3.1980181 1.1468986 4.4144926
-49.732285 -17.626862 63.98423
-49.71085 -17.258476 64.018997
-49.591171 -16.860184 63.928562
-49.614433 -16.510006 64.020523
-49.509285 -16.114584 63.949219
-49.518585 -15.765666 64.022118
-49.475639 -15.393703 64.028442
-49.477421 -15.038026 64.09465
-49.468262 -14.327461 64.20517
-49.408478 -13.953212 64.191444
-49.388458 -13.59691 64.226021
-49.368858 -13.23634 64.264206
-49.302452 -12.862225 64.23922
-17.148659 -3.4730887 22.437571
-17.091797 -3.3445854 22.38373
-17.093601 -3.2324374 22.405561
-17.097416 -3.1224885 22.429731
-6.439312 -0.33169249 8.5177269
-6.4466023 -0.30073041 8.5329294
-6.4654326 -0.2729173 8.563386
-6.4842753 -0.24429987 8.5937872
-6.7564416 -0.27149576 8.9566984
-5.9350057 -0.061103731 7.8837605
-5.9348278 -0.032107025 7.8885355
-5.8782644 0.0081152022 7.8190889
-5.8661189 0.038531572 7.8081293
-5.8539801 0.069225013 7.7970409
-5.8441105 0.099342138 7.788918
-5.8293967 0.12969184 7.7744761
-5.8146887 0.16027805 7.7598982
-5.7998214 0.19065386 7.7452507
-5.7920103 0.21938944 7.7396708
-5.7817717 0.24877673 7.7309217
-5.7690315 0.27833131 7.7190046
-5.7563229 0.30731428 7.7068486
-5.7505517 0.33572543 7.7039661
-5.7469611 0.36380774 7.704154
-5.7434001 0.39145884 7.7041264
-5.7397461 0.41949761 7.7040396
-5.7382698 0.44729397 7.7070336
-5.736824 0.47469282 7.7098207
-5.7328601 0.50266981 7.7094851
-5.7312417 0.53047752 7.7121086
-5.7295732 0.55787504 7.7145934
-5.7347136 0.58533585 7.72647
-5.7375264 0.61301512 7.7350593
-5.7336655 0.63988197 7.743556
-5.7362261 0.66767901 7.7520175
-5.7434397 0.69547069 7.7665958
-5.752923 0.7229588 7.7841921
-5.7529092 0.75107086 7.7892246
-5.7552223 0.77923805 7.7972341
-5.7527657 0.80699211 7.7988973
-5.759552 0.83535105 7.812995
-5.800982 0.86476904 7.874177
-5.872304 0.89543951 7.9762316
-8.1215401 1.0185375 11.04263
-7.3290977 1.0260307 9.971097
-6.7962675 1.035639 9.2516356
-6.3911085 1.0459527 8.7048855
-6.0533514 1.0549352 8.2491589
-5.7666931 1.0624003 7.8625355
-5.5103974 1.0685976 7.516603
-5.3003736 1.0752798 7.2335649
-5.0861845 1.0779538 6.9440203
-4.9296417 1.0841129 6.7331314
-4.7961879 1.0906131 6.5537009
-4.6699057 1.095669 6.3835869
-4.546062 1.0994285 6.2165499
-4.4109278 1.0996698 6.0337324
-4.3286219 1.1054975 5.9232941
-4.2418394 1.1096292 5.8065004
-4.1619782 1.1135747 5.6991501
-4.0777769 1.115294 5.5854282
-4.0004559 1.1172113 5.4811544
-3.9255829 1.1183938 5.3799686
-3.8599434 1.1200277 5.2913637
-3.8011386 1.122275 5.2122087
-3.7470012 1.1246071 5.1392984
-3.7065449 1.1289395 5.0852613
-3.6615677 1.1318183 5.024931
-3.6189597 1.1345626 4.9677033
-3.5741668 1.1359326 4.9073544
-3.5384536 1.1390969 4.8595352
-3.4938211 1.1393718 4.7991362
-3.4515121 1.1394132 4.7419128
-3.4092913 1.138986 4.6846561
-3.3783329 1.1411253 4.6430979
-3.3474274 1.1426485 4.6015687
-3.3143544 1.1431903 4.5568676
-3.2857695 1.1446171 4.5184603
-3.2572956 1.1454819 4.4800434
-3.2288516 1.1460621 4.441617
-3.2004383 1.1462126 4.4032149
-50.09745 -17.628046 63.902
-50.10194 -17.268675 63.969841
-50.071121 -16.90247 63.9939
-50.073582 -16.543081 64.059029
-50.015118 -16.162945 64.048492
-49.98233 -15.797647 64.067474
-49.958191 -15.430644 64.09832
-49.946068 -15.068707 64.146667
-49.910255 -14.704342 64.161438
-49.937263 -14.355209 64.257652
-49.88205 -13.980976 64.25045
-49.87389 -13.626741 64.300476
-49.830799 -13.257653 64.308609
-49.794853 -12.890926 64.323608
-17.230408 -3.4606781 22.367167
-49.742332 -12.170439 64.379593
-17.130302 -3.2082944 22.277353
-17.209688 -3.1180725 22.399118
-6.4481678 -0.29179841 8.4836111
-6.7551126 -0.26181832 8.8997917
-5.904952 0.010003328 7.8089056
-5.8809514 0.042686701 7.7825913
-5.866396 0.073750019 7.7684555
-5.8564825 0.10379079 7.760355
-5.8416972 0.13406166 7.7459579
-5.8269176 0.16456774 7.7314243
-5.8143358 0.19450331 7.7199163
-5.7899942 0.22558036 7.6926813
-5.7985649 0.25218582 7.7087326
-5.7810526 0.28231135 7.6906552
-5.7682838 0.31121656 7.6785369
-5.7624936 0.33955416 7.675663
-5.7588978 0.3675645 7.675849
-5.7553306 0.39514458 7.6758199
-5.7516699 0.4231112 7.6757331
-5.7478495 0.45103866 7.6756043
-5.7464118 0.47835043 7.6783805
-5.7447915 0.50607121 7.6811609
-5.7502241 0.53336257 7.6931305
-5.7555985 0.5603497 7.7049708
-5.7654719 0.58762455 7.7230639
-5.7683077 0.61537838 7.7316375
-5.7644587 0.64231515 7.7401571
-5.7670412 0.67018664 7.7486043
-5.771965 0.69809908 7.7600183
-5.7815113 0.72564828 7.7775688
-5.7791705 0.7538228 7.7794652
-5.7768383 0.78200871 7.7811933
-5.7767119 0.80979002 7.7859921
-5.7812176 0.83812809 7.7969179
-5.785635 0.86657125 7.8077459
-5.7899199 0.8946842 7.8185201
-8.1292267 1.0219219 10.978574
-7.355401 1.0297661 9.9418545
-6.8287425 1.0394731 9.2372608
-6.4165673 1.0492158 8.6859951
-6.0768332 1.0579449 8.2317362
-5.78618 1.0650089 7.8432174
-5.5283856 1.0709957 7.4983978
-5.3148236 1.0772812 7.2131314
-5.1109343 1.0809553 6.9402208
-4.9373121 1.0852518 6.7080264
-4.8123121 1.0926799 6.5417385
-4.6852913 1.097641 6.3721719
-4.5607224 1.1013075 6.2056723
-4.4316926 1.1024297 6.032867
-4.3443065 1.1075583 5.916503
-4.2570143 1.1116424 5.8000846
-4.1766844 1.115546 5.6930809
-4.0874081 1.1164242 5.5734444
-4.0096369 1.1182659 5.4695072
-3.9343286 1.1193745 5.3686476
-3.8705885 1.1213919 5.2834673
-3.81144 1.1235952 5.204567
-3.7569859 1.1258867 5.1318917
-3.7140207 1.129686 5.0748925
-3.6710544 1.1330342 5.0178938
-3.6281974 1.1357465 4.9608507
-3.5808783 1.1365275 4.8975625
-3.5426989 1.1390748 4.8467655
-3.5000687 1.1398715 4.7896948
-3.4597702 1.1404716 4.7357883
-3.4173014 1.1400125 4.6787148
-3.3861623 1.1421287 4.6372905
-3.357322 1.1442887 4.5990229
-3.3262939 1.1455004 4.55759
-3.2952964 1.146246 4.5161791
-3.2644172 1.1463945 4.474761
-3.2358062 1.1469533 4.4364586
-3.2072265 1.1470826 4.39818
-50.627998 -17.694641 64.025604
-50.609146 -17.324541 64.063965
-50.594959 -16.962681 64.10939
-50.569305 -16.591263 64.138962
-50.522591 -16.21365 64.143951
-50.506416 -15.852331 64.184372
-50.458706 -15.475523 64.185608
-50.460953 -15.116555 64.252335
-50.384892 -14.737508 64.21637
-50.367233 -14.372728 64.255402
-50.345093 -14.007502 64.290863
-50.327599 -13.649031 64.329041
-50.310547 -13.28621 64.370827
-50.284073 -12.920647 64.398315
-50.282562 -12.567842 64.456711
-50.245865 -12.200796 64.473175
-50.195011 -11.830244 64.469185
-17.231787 -3.0915256 22.25209
-6.5369072 -0.33722118 8.5411558
-6.4470072 -0.28257731 8.4312897
-6.4114947 -0.2424147 8.3912773
-17.167294 -2.4075511 22.285831
-17.166695 -2.2955508 22.304213
-5.9387426 0.010290414 7.8077564
-5.8980069 0.046170175 7.7600565
-5.8810081 0.07761839 7.7428951
-5.8710508 0.10760081 7.7348228
-5.8538237 0.13820454 7.7173948
-5.8342295 0.16938332 7.6967449
-5.8192196 0.19956419 7.6821847
-5.7947545 0.23050398 7.6550303
-5.8010197 0.25731602 7.6679325
-5.7905331 0.28637284 7.6591763
-5.7800741 0.31489536 7.6501875
-5.7742653 0.3431595 7.6473222
-5.7706652 0.37109789 7.6475077
-5.7694583 0.39837179 7.6505775
-5.7657914 0.4262841 7.6504936
-5.764329 0.45395726 7.65347
-5.7652607 0.48105219 7.6593456
-5.7730956 0.50809675 7.6745486
-5.7856536 0.53500557 7.695816
-5.8005075 0.56158477 7.7200727
-5.8104391 0.58904517 7.7381315
-5.8109326 0.61707366 7.7435861
-5.8070774 0.64416581 7.7521458
-5.8143821 0.67208189 7.7668219
-5.8216844 0.70015287 7.7813392
-5.8242297 0.72799146 7.7894955
-5.8148289 0.75634396 7.7820415
-5.8077912 0.78461289 7.777534
-5.8076706 0.81246537 7.7823296
-5.8122082 0.84087896 7.793232
-5.8447709 0.87017238 7.8415375
-5.8958869 0.90021056 7.9148178
-8.1669178 1.0262139 10.955237
-7.3932676 1.0337776 9.9281425
-6.8635454 1.043174 9.2258425
-6.4466372 1.0525334 8.6732426
-6.1002636 1.0607231 8.2142038
-5.8079233 1.0675867 7.8269491
-5.5509601 1.0736018 7.4863806
-5.3315048 1.0793111 7.1957827
-5.1310811 1.0833091 6.9300203
-4.9471622 1.0864694 6.6860576
-4.8237648 1.0940348 6.5234423
-4.7006454 1.0994611 6.3606901
-4.5776687 1.1033533 6.1978631
-4.4617615 1.1063784 6.044405
-4.3623018 1.1098363 5.9127645
-4.2721915 1.1135318 5.7935944
-4.1890883 1.1170162 5.6838093
-4.0992937 1.1178327 5.5645614
-4.0187712 1.119204 5.4578323
-3.9453249 1.1206775 5.3604298
-3.8789201 1.1221993 5.272398
-3.8240154 1.1252832 5.2000113
-3.7692432 1.1275548 5.1275725
-3.7237401 1.1308377 5.0676317
-3.678242 1.1336343 5.0076938
-3.6328592 1.1357599 4.9477119
-3.5875492 1.1370308 4.8877554
-3.5491514 1.1395341 4.8371253
-3.5085483 1.1408759 4.7833633
-3.4680159 1.1414483 4.7296324
-3.4275653 1.1415865 4.6758642
-3.3962426 1.143699 4.6345735
-3.3649735 1.1451949 4.5933123
-3.3337655 1.1463853 4.5520139
-3.3025882 1.1471094 4.5107379
-3.2692804 1.1465229 4.4663415
-3.2405066 1.1470448 4.4281645
-3.2117643 1.1471368 4.3900127
-51.284248 -17.80475 64.300842
-51.208569 -17.410746 64.268539
-51.213608 -17.053423 64.33831
-51.102467 -16.649065 64.261177
-51.117603 -16.291073 64.34433
-51.027813 -15.902302 64.29258
-51.011017 -15.533993 64.333252
-50.98732 -15.164423 64.367355
-50.980137 -14.805575 64.419052
-50.938786 -14.43101 64.428528
-50.904827 -14.059967 64.449394
-50.861221 -13.691637 64.454842
-50.856201 -13.330334 64.512077
-50.825005 -12.961419 64.533936
-50.804588 -12.601416 64.568443
-50.78458 -12.236998 64.606514
-19.21983 -3.6850033 24.584385
-18.980639 -3.5000982 24.301563
-18.650015 -3.2946033 23.902882
-6.5218453 -0.29128611 8.4764042
-6.6366305 -0.25179121 8.6341915
-6.7894101 -0.25107589 8.8350945
-17.22649 -2.3910275 22.187534
-17.225933 -2.2792153 22.205853
-5.9845257 0.0085062981 7.8217325
-5.922092 0.048532635 7.7466817
-5.9026222 0.080414534 7.7265248
-5.8878484 0.11120975 7.7123542
-5.8657651 0.14255142 7.6888494
-5.843688 0.17402095 7.665194
-5.8262234 0.20446059 7.6476045
-5.8183203 0.23290494 7.6420631
-5.8103313 0.26166978 7.6364636
-5.8021832 0.2903282 7.6308136
-5.7940607 0.31848836 7.6249352
-5.7906137 0.34642783 7.6251645
-5.7870064 0.37432969 7.6253529
-5.7834253 0.40180275 7.6253271
-5.7821302 0.42944482 7.628335
-5.78543 0.45668671 7.6374912
-5.795887 0.48306119 7.6557312
-5.8156562 0.50936943 7.686379
-5.8377891 0.53586799 7.7199888
-5.8574739 0.56243122 7.7503934
-5.862711 0.59038651 7.7622209
-5.8584599 0.61883199 7.7614803
-5.8427501 0.64648938 7.7545567
-5.8359013 0.67486298 7.7505569
-5.8290653 0.7031787 7.7463837
-5.8269176 0.73096001 7.7482929
-5.8198481 0.75916076 7.7439728
-5.8127923 0.78730154 7.73948
-5.8126936 0.81503326 7.7442598
-5.8149223 0.84327877 7.7520132
-5.8524103 0.87258887 7.8063903
-5.9132619 0.902897 7.8918962
-8.2162485 1.0313741 10.947325
-7.4216785 1.0376337 9.9017782
-6.8983092 1.0471661 9.2142506
-6.4743037 1.0559599 8.6572266
-6.1259356 1.0639099 8.1996937
-5.8319139 1.0705739 7.8137102
-5.5804958 1.077038 7.4836183
-5.3574319 1.08243 7.1908541
-5.158186 1.0865738 6.9290848
-4.9591904 1.0881068 6.6671982
-4.839756 1.0961014 6.5113583
-4.7135992 1.1011407 6.3460197
-4.5852609 1.1042976 6.1774855
-4.4733477 1.1078453 6.0307727
-4.3802896 1.1122568 5.908926
-4.2850142 1.1151888 5.783906
-4.1991158 1.118228 5.671361
-4.1134386 1.1197622 5.5587435
-4.0324507 1.1210912 5.4523649
-3.9585795 1.122528 5.3552809
-3.8917902 1.1240176 5.2675371
-3.8365684 1.1270785 5.1953878
-3.7837811 1.1298159 5.1263032
-3.7380118 1.1330998 5.0665579
-3.68995 1.1353741 5.0036998
-3.6443036 1.1374837 4.9439139
-3.6010218 1.1392967 4.8872676
-3.5623975 1.1418068 4.8368015
-3.5192704 1.1425599 4.7801018
-3.4785016 1.1431191 4.7265453
-3.4378147 1.1432451 4.6729527
-3.4085846 1.1459978 4.6349049
-3.3771298 1.147505 4.5937772
-3.3457358 1.1487072 4.5526114
-3.3143725 1.1494433 4.5114679
-3.2808664 1.1488662 4.4672136
-3.2519202 1.1494015 4.4291592
-3.2230053 1.1495069 4.3911285
-51.872017 -17.89019 64.482208
-51.812943 -17.500078 64.471428
-51.796783 -17.132624 64.514969
-51.692482 -16.7286 64.447655
-51.727123 -16.374882 64.555
-51.610783 -15.974846 64.471321
-51.606121 -15.608232 64.527405
-51.580162 -15.235538 64.559052
-51.589951 -14.879681 64.632133
-51.565392 -14.507845 64.663177
-51.5243 -14.132061 64.675667
-51.449516 -13.75209 64.642693
-51.444691 -13.388469 64.70034
-51.41354 -13.017249 64.722702
-51.378822 -12.651052 64.739571
-51.351707 -12.282519 64.769012
-19.190876 -3.6413934 24.353905
-19.003181 -3.4707518 24.138416
-18.725958 -3.2794056 23.810627
-6.5515585 -0.2894305 8.4633732
-6.6886177 -0.25456011 8.6479836
-6.791863 -0.24277589 8.7844381
-6.0401049 0.0046955347 7.8475628
-5.9533339 0.049354345 7.7423086
-5.9241676 0.082996309 7.7100267
-5.9021249 0.11500609 7.6867452
-5.8799314 0.14628208 7.6633201
-5.8553438 0.17805776 7.6366839
-5.8377962 0.20841628 7.6191521
-5.8274646 0.23712456 7.6105623
-5.8218412 0.26547706 7.6080456
-5.813663 0.29406047 7.6024141
-5.8079038 0.32186195 7.5996265
-5.8020563 0.35001433 7.5967822
-5.7984433 0.37784433 7.5969701
-5.7948575 0.4052465 7.5969448
-5.7983546 0.43238968 7.6061029
-5.8136468 0.4586173 7.6306443
-5.8409071 0.48379928 7.6704245
-5.8703494 0.50965446 7.7133389
-5.8926053 0.5364176 7.7468696
-5.8956857 0.5641228 7.755579
-5.8937969 0.59253228 7.7581158
-5.8609056 0.62213469 7.7202868
-5.840425 0.64979517 7.7072058
-5.8311834 0.67804378 7.7001166
-5.8219562 0.70619893 7.692853
-5.8198242 0.73377037 7.6947489
-5.8151207 0.76175183 7.6935387
-5.8056784 0.78967917 7.6859541
-5.798492 0.817105 7.681406
-5.7936544 0.84493673 7.6798162
-5.7911124 0.87279916 7.6812267
-5.8121285 0.90108675 7.7136364
-8.2656593 1.0362039 10.939119
-7.45472 1.0414231 9.8815022
-6.9118261 1.0496473 9.1744995
-6.499578 1.0589821 8.6379652
-6.1468658 1.0665206 8.1788387
-5.8558846 1.0733491 7.8003511
-5.5959659 1.0790324 7.4620237
-5.3763409 1.0846906 7.1764493
-5.1712575 1.0882101 6.9093261
-4.9805241 1.0906191 6.6607466
-4.8604064 1.098568 6.5054259
-4.7241507 1.1023684 6.3281927
-4.5904016 1.1047728 6.1539955
-4.4895577 1.1098356 6.0233221
-4.3936305 1.1138513 5.8987684
-4.3001466 1.1170858 5.7772732
-4.2137566 1.120084 5.6651011
-4.1275883 1.1215774 5.552856
-4.0461364 1.1228688 5.4468288
-3.9741654 1.1247104 5.3531752
-3.9046681 1.1257341 5.2626123
-3.8514483 1.129248 5.1938105
-3.7960393 1.131494 5.1218462
-3.7476938 1.1342565 5.0591927
-3.6970489 1.1359729 4.9934368
-3.6511455 1.1380336 4.9338503
-3.60762 1.1398 4.8773928
-3.5710809 1.142844 4.8301983
-3.5277073 1.1435677 4.7736859
-3.4867063 1.1440991 4.7203074
-3.445787 1.1441972 4.6668916
-3.411814 1.1456349 4.6227732
-3.3801868 1.1470863 4.5817842
-3.3486204 1.148232 4.5407581
-3.3193643 1.1496115 4.5028486
-3.2879448 1.1497114 4.4618349
-3.2588334 1.150227 4.4239058
-3.2274852 1.1495608 4.3829117
-52.282349 -17.90543 64.439278
-52.30006 -17.542381 64.523361
-52.262421 -17.165674 64.540619
-52.222706 -16.783043 64.553925
-52.197639 -16.406818 64.587326
-52.143448 -16.026432 64.581558
-52.12455 -15.653187 64.620132
-52.108303 -15.28181 64.664101
-52.06538 -14.907494 64.671852
-52.062569 -14.540835 64.730064
-52.007004 -14.159119 64.725037
-51.989853 -13.794563 64.764404
-51.951447 -13.419388 64.780418
-51.934784 -13.050486 64.821144
-51.957958 -12.698146 64.910477
-19.413637 -3.7882235 24.419006
-19.172295 -3.6000724 24.139307
-19.142857 -3.4698877 24.12328
-18.830368 -3.2702656 23.754471
-18.759192 -3.1314368 23.686035
-6.5596552 -0.25006902 8.4288673
-6.8132181 -0.27289414 8.7522497
-6.8132691 -0.23833162 8.7581463
-18.779167 -2.6527581 23.7941
-18.778656 -2.5308449 23.814007
-5.9990849 0.047761887 7.756032
-5.9528751 0.084525883 7.7025948
-5.9186573 0.11860397 7.6641808
-5.89394 0.15021911 7.6377907
-5.8692288 0.1819253 7.6112442
-5.8515959 0.21221954 7.5937715
-5.8412189 0.24086949 7.5852103
-5.8355775 0.26916632 7.5827026
-5.8273664 0.29769221 7.5770907
-5.821588 0.32543859 7.5743132
-5.8133121 0.35380033 7.5684156
-5.8072863 0.38180599 7.5655365
-5.8061013 0.40888947 7.5685768
-5.8240695 0.43469107 7.5961237
-5.8538876 0.4597984 7.6390247
-5.8957295 0.48407781 7.697134
-5.9205289 0.5105232 7.7337875
-5.9381046 0.53780067 7.7610779
-5.926796 0.56643039 7.7513094
-5.8697057 0.59736294 7.6830072
-5.8414602 0.62642777 7.6514473
-5.8257694 0.65364265 7.644558
-5.8117208 0.68172801 7.6313066
-5.8048677 0.70953989 7.62714
-5.8027558 0.73683131 7.6290178
-5.8004513 0.76452613 7.6308899
-5.7933769 0.79219842 7.6264133
-5.7837963 0.81934148 7.6187811
-5.7813516 0.84695679 7.6202822
-5.7812119 0.87464011 7.6247778
-5.7738032 0.90167165 7.6199346
-5.7735085 0.9293673 7.6242309
-5.7755113 0.95721781 7.6315255
-6.9060512 1.0512677 9.1099806
-6.5199928 1.0619452 8.6124039
-6.1724095 1.0697156 8.1641045
-5.8797846 1.0763476 7.7868824
-5.6112909 1.081225 7.4403877
-5.3998966 1.0876001 7.1681643
-5.1865578 1.090266 6.892633
-5.0065584 1.0938351 6.6603832
-4.8810372 1.101204 6.4993825
-4.7345781 1.1037436 6.3103409
-4.6047883 1.1066474 6.1429248
-4.5010238 1.1113019 6.0095882
-4.4045582 1.1152297 5.8854513
-4.3128972 1.1187472 5.7674618
-4.2260203 1.1216819 5.6556649
-4.1393652 1.1231117 5.5437946
-4.0574536 1.1243433 5.4381218
-3.9827383 1.1256925 5.3416815
-3.9151859 1.1271045 5.2545199
-3.8570027 1.1296303 5.1797533
-3.803616 1.1322926 5.1111279
-3.7573276 1.1355116 5.0517802
-3.7110443 1.1382449 4.9924359
-3.6671968 1.1408519 4.936141
-3.6234174 1.1426382 4.8798704
-3.5820343 1.1445491 4.8266449
-3.5361011 1.1446612 4.7672281
-3.4948688 1.1451626 4.7140284
-3.4537177 1.1452305 4.6607904
-3.4195533 1.1466432 4.6168194
-3.3900466 1.1487378 4.5790548
-3.360594 1.1505619 4.5412502
-3.3288746 1.1512535 4.50038
-3.2972741 1.1513473 4.4595017
-3.2657099 1.1511228 4.4186163
-3.2364657 1.1511871 4.3808384
-52.782425 -17.956202 64.502007
-52.831894 -17.602867 64.624557
-52.794319 -17.224342 64.642326
-52.771568 -16.845745 64.676788
-52.722443 -16.45932 64.681129
-52.682716 -16.082006 64.693665
-52.666386 -15.707634 64.735611
-52.638187 -15.330466 64.765152
-52.597679 -14.955098 64.77636
-52.602348 -14.588769 64.843819
-52.53701 -14.202278 64.827423
-52.529675 -13.838701 64.879074
-52.510674 -13.467087 64.919441
-52.479576 -13.092116 64.942619
-52.493378 -12.735216 65.020172
-19.297733 -3.721745 24.084106
-19.140001 -3.5567765 23.910088
-18.904205 -3.3767474 23.638762
-18.878778 -3.2487009 23.628504
-18.850939 -3.1203461 23.614447
-6.6183224 -0.25471053 8.4517708
-6.8344674 -0.26868469 8.7258558
-6.8345327 -0.23415577 8.7317362
-19.087215 -2.6854401 23.991169
-19.086746 -2.5619545 24.011299
-6.0523109 0.044666737 7.7785082
-5.9815931 0.085850686 7.6949744
-5.9326425 0.12238628 7.6384988
-5.9078021 0.15393415 7.6121988
-5.882966 0.18557218 7.5857439
-5.8676744 0.21545142 7.5713749
-5.8596764 0.24372658 7.5658913
-5.8515911 0.2723197 7.5603504
-5.8433485 0.30080616 7.5547619
-5.832706 0.32907787 7.5458956
-5.824398 0.35736462 7.5400167
-5.8183541 0.38529679 7.537147
-5.826858 0.41139668 7.5524073
-5.8546152 0.4363682 7.5921068
-5.9087925 0.45963654 7.665493
-5.9508672 0.48418996 7.7234383
-5.9492202 0.51263887 7.7262859
-5.9499931 0.54096413 7.7320309
-5.8493018 0.57405853 7.6087737
